ply
format ascii 1.0
element vertex 1110
property float x
property float y
property float z
property uchar red
property uchar green
property uchar blue
end_header
176.639771 602.905640 242.122955 101 95 93
197.431976 679.116333 41.518639 120 115 114
216.501480 613.372192 362.621857 89 90 96
203.451172 642.579529 322.242737 51 50 51
212.555923 672.114929 320.399536 47 46 46
228.193176 670.309448 355.574707 119 122 131
111.784187 776.620056 186.509445 135 125 121
148.391281 851.097351 106.328430 134 129 130
130.314896 840.775757 134.573532 95 85 79
155.095062 880.843933 130.872360 72 73 78
247.426132 893.898987 192.388962 122 97 84
181.014557 995.393433 185.570786 161 149 144
235.284195 964.054688 152.859802 138 126 119
200.423737 787.882324 257.186676 105 95 90
227.829941 837.799927 294.817841 146 137 134
261.223175 527.383789 102.498390 95 84 75
284.361908 583.285400 121.535126 77 75 77
300.967041 595.478149 114.493645 102 95 91
288.743103 632.178833 131.905960 58 57 58
308.066772 615.426147 189.520508 107 100 97
361.847260 576.634705 174.945267 116 106 100
278.494751 642.236755 124.769592 96 92 92
268.248108 759.443848 264.064270 66 61 58
327.844513 840.594727 233.073807 140 129 126
287.159302 785.604614 314.579529 59 52 47
305.977783 797.875488 323.312317 180 142 126
355.157318 804.520752 258.937531 78 73 72
173.261490 117.377823 96.974258 90 87 88
188.230881 112.435425 80.694756 94 92 93
226.388992 26.393627 91.233452 76 70 66
151.043091 33.184666 189.863480 172 159 154
163.239960 2.372544 197.879288 103 94 89
163.552155 187.358414 105.917610 103 96 93
152.707230 236.019989 115.306252 111 108 110
237.521713 172.587433 114.760124 94 90 89
145.586258 250.078247 151.797653 110 104 104
120.998810 309.008698 144.904816 88 76 65
124.063576 340.775146 178.793457 94 83 74
124.193207 404.935333 114.976089 101 96 96
107.922058 434.929138 169.632477 146 141 144
120.847343 502.004700 182.651093 135 130 130
139.714355 321.121979 118.802338 121 118 120
144.380722 335.807281 132.094147 108 105 107
130.365677 405.994568 100.813507 83 76 71
135.311996 430.206604 100.878395 116 113 115
207.755386 397.645538 89.480682 66 63 62
232.211075 496.191650 93.227097 138 135 137
174.585831 427.581024 209.742676 109 104 103
233.580597 418.005737 138.699448 92 88 88
244.910049 304.195313 270.324158 85 74 65
200.670654 444.307922 254.738541 143 137 138
366.948090 7.276045 243.548279 124 116 112
372.843628 41.353443 237.214020 124 113 108
287.984711 138.460892 249.249634 101 96 96
309.887726 136.403748 223.597748 78 74 74
376.344635 93.789032 254.775894 116 108 107
259.524811 236.739792 275.144379 104 99 97
291.588470 281.750000 225.997177 99 94 93
292.243927 296.712952 223.504868 91 88 88
262.102386 329.703766 209.511169 100 98 100
311.804657 332.486786 203.175598 127 125 128
337.330627 382.254852 247.238358 122 115 113
270.870972 408.481110 163.807144 107 104 106
285.457306 314.575958 313.705750 116 105 100
301.544800 358.415222 319.534576 109 94 81
337.080322 276.104218 286.587708 130 125 127
332.604523 333.242340 262.418518 113 107 105
270.363922 429.337738 296.453857 172 166 169
79.728981 604.686462 128.759384 53 56 61
115.739876 636.164673 181.317123 103 99 98
43.272987 719.768311 117.876259 115 102 94
120.143272 671.095825 120.025902 82 79 80
123.590759 744.996826 103.131767 85 82 82
63.221893 659.892212 126.072083 105 101 101
58.204124 754.071960 129.538208 122 115 114
46.522026 710.769775 190.565674 181 174 177
83.705070 655.733826 216.112244 90 84 81
95.369064 705.009033 128.337143 71 70 71
131.197693 536.809814 107.614342 87 83 82
143.399597 609.913391 94.967239 49 50 53
246.480652 575.599854 102.024574 114 108 107
199.065475 591.704468 40.396828 114 105 100
206.391006 584.593933 54.620201 74 67 63
214.873978 610.694458 51.030125 94 85 79
148.430710 618.395935 204.134491 79 76 75
245.971603 597.173889 248.886826 53 52 55
182.495712 668.800964 63.246162 93 88 87
134.846375 651.362488 111.940727 63 62 63
130.180252 754.751831 90.383377 111 106 106
167.792114 749.917603 83.288956 90 87 86
204.837601 648.243896 50.355099 109 104 103
226.546906 669.515381 68.577637 71 65 61
239.160294 663.781677 74.942787 119 112 110
237.469986 679.970581 78.152473 94 89 88
158.440796 733.365356 248.679901 90 84 82
172.092896 596.782959 317.085846 99 96 97
160.328293 630.986877 318.811829 39 41 45
241.428024 537.042786 257.323090 153 148 151
235.830658 511.968903 396.144836 53 55 59
151.904099 672.895874 314.742401 80 83 91
174.815918 763.690796 267.519684 60 58 59
200.277115 696.696228 311.728302 116 111 112
237.091583 691.041870 312.071320 100 89 81
259.379822 685.285950 312.138306 101 93 89
226.566711 665.365295 323.990753 45 44 45
215.639069 711.628967 288.447357 142 133 130
199.382263 755.751038 258.633667 115 106 102
68.848923 784.619812 126.085426 132 126 126
109.087624 831.283264 150.357529 143 130 124
183.923721 830.831177 87.538399 49 49 52
160.275192 845.800049 85.932678 67 71 81
187.096909 824.455139 224.194412 115 105 99
139.081818 862.087158 159.377594 87 81 83
184.338425 866.686890 207.323532 130 107 99
200.262115 854.418274 218.652618 120 92 86
206.169815 887.990112 245.462555 134 117 105
178.385666 923.013733 233.265884 135 99 93
187.348251 987.366455 181.671631 159 147 141
154.810913 781.963989 266.294281 66 73 83
166.396927 789.972900 259.900085 112 116 126
250.209854 806.571899 305.569641 80 73 69
217.127625 904.435852 258.998169 144 121 111
311.428833 542.797729 163.850754 79 68 59
300.603119 557.474609 235.537354 146 138 137
301.431427 603.860474 131.663101 94 86 81
281.359283 579.925354 230.676849 54 55 59
300.003906 620.264709 217.047333 128 118 115
309.220642 634.005371 208.254242 95 88 86
270.452057 745.293030 83.814972 98 89 82
297.102814 707.810791 94.974251 101 96 95
332.235687 744.725342 206.817444 96 88 84
267.502045 673.487305 266.422821 100 95 93
275.935699 727.031433 261.576599 31 32 35
256.920105 748.603027 274.961151 86 78 75
306.429626 736.365356 329.399048 80 73 70
332.541016 732.797058 380.154053 131 127 128
347.010925 714.060120 379.033997 97 90 88
256.130280 805.768188 101.853241 114 108 106
261.537872 823.774414 245.248703 83 76 73
278.291595 823.293396 249.948669 61 53 48
306.738770 823.530151 251.538895 130 117 109
288.098572 962.306274 212.362030 101 85 79
265.754456 824.925476 282.864105 44 40 44
265.377411 812.853760 295.956238 54 51 52
307.999512 803.051086 335.747986 193 152 134
279.382568 936.956970 270.114838 145 131 123
138.501022 13.016855 141.687164 72 69 69
156.383392 250.017517 105.848534 122 120 122
203.329498 198.639450 166.753052 105 101 102
115.098907 503.686615 131.887604 99 97 99
192.653427 352.251678 101.564468 58 56 57
216.201340 360.540009 180.958664 63 60 59
256.022736 330.133148 223.034088 65 62 61
156.503647 458.004700 206.123001 118 111 109
224.283310 361.385956 281.264801 131 124 124
341.220612 24.076565 198.436066 88 81 77
321.820282 73.849937 221.327209 87 83 84
287.277496 225.403412 227.454971 92 90 91
319.071228 191.257248 207.777679 87 83 83
335.228821 235.541489 222.574677 110 105 105
325.183899 240.406738 294.432068 109 103 101
303.017456 286.598602 228.872604 105 101 101
330.647827 279.915619 235.914352 106 101 100
325.970795 389.837708 279.020691 136 130 131
339.170532 421.572083 263.800629 143 135 134
122.496071 636.354004 137.096603 56 55 57
43.957108 667.458618 129.293350 108 103 103
114.373878 664.164246 207.113754 61 59 59
128.685287 626.086060 186.118057 80 77 77
233.764587 613.137024 251.820801 127 122 122
134.992874 645.602295 122.830978 56 58 61
181.387634 652.332092 64.544807 101 96 95
194.967346 614.573608 266.913055 71 68 69
143.448303 835.390930 99.576355 121 114 113
218.493271 832.821228 110.490875 138 127 123
250.053894 828.099670 102.357056 148 135 128
181.748474 1001.638184 202.113663 175 164 160
250.731064 912.921631 239.538315 138 118 105
272.299103 562.708435 114.953094 112 108 110
297.924469 513.369385 135.249130 133 128 128
368.625824 604.346680 166.746933 111 98 87
313.458008 730.714417 106.096558 118 112 112
297.857513 738.173218 307.751373 101 95 93
328.564240 718.226501 306.469818 95 90 90
362.234711 758.256897 275.099579 81 74 69
368.633911 746.822510 353.100586 108 101 97
367.862366 754.882935 350.909088 170 160 157
295.117828 787.317566 272.917084 69 63 60
215.225525 43.336411 137.752396 84 77 72
211.736649 187.239243 158.157562 91 87 87
191.121353 289.467834 194.582581 94 89 89
61.794464 644.565186 176.867706 35 35 37
109.753044 687.558105 143.480865 72 69 69
240.035446 627.162354 105.039619 99 92 91
136.065552 580.990906 200.754471 52 52 55
220.303268 565.770203 367.666504 65 65 67
181.703400 872.393433 142.209641 104 92 87
160.511337 964.943787 190.177841 143 133 129
249.821487 821.891907 284.997681 46 47 50
177.762421 938.981323 266.798004 77 74 74
317.034393 649.005920 123.476288 98 94 94
315.636871 743.760620 140.902237 82 76 74
331.221069 761.258484 163.079895 113 105 100
311.744720 746.962097 254.584549 90 88 89
309.041290 846.560303 207.437134 130 117 118
323.183929 771.037048 148.978180 115 107 103
271.227478 768.202148 256.670197 103 95 92
185.278076 125.923073 68.965256 103 101 102
200.773849 64.768082 66.996315 79 78 79
194.560638 87.055840 65.501389 92 86 85
234.555420 63.351208 81.380775 99 91 86
236.718994 69.390121 85.104095 99 94 93
229.327896 87.031403 69.777374 115 110 109
176.950806 34.820084 183.106415 137 124 117
161.521851 29.793459 200.035797 166 152 144
197.644577 97.227501 146.717438 103 97 95
209.483429 94.837723 154.820023 75 72 72
215.480392 134.838409 159.254745 72 69 68
230.877701 209.040298 164.470184 97 92 91
116.669106 457.740448 111.981178 124 120 120
171.159485 253.372009 80.425591 114 107 104
179.478882 302.670990 98.531311 104 98 96
158.004639 371.728058 100.516243 122 120 122
196.834564 258.074860 85.983574 120 112 108
140.869202 300.498657 130.650085 81 74 69
186.905991 302.402130 195.866653 93 88 87
134.485184 347.499695 192.378403 82 73 64
188.578766 344.338623 199.929337 68 59 52
174.295074 467.836823 88.823380 98 95 96
172.785263 492.554993 86.749008 94 91 92
232.175735 440.494049 112.494629 97 93 93
180.199265 395.073364 209.489151 91 84 80
164.205811 482.055054 230.769119 147 141 142
179.946548 502.589935 244.673553 131 126 127
245.733810 438.206421 155.069992 108 106 108
251.710190 285.252808 279.991913 123 118 118
225.165375 334.833160 272.714600 92 80 69
230.848236 428.243805 277.081543 126 120 119
240.407669 425.682739 289.325378 150 143 144
208.246384 464.803802 259.999023 139 133 135
364.465271 119.558121 205.214462 125 119 118
343.259827 208.520569 217.492126 111 108 109
335.645874 20.233229 374.155457 106 95 87
311.478180 126.151543 273.420349 72 67 67
320.497406 291.392700 229.803711 89 85 85
285.658325 367.906494 182.022171 121 117 118
285.709229 435.065613 161.431870 107 102 101
287.452637 474.597870 126.225914 131 128 129
334.445923 406.238037 231.709671 142 135 135
270.147003 302.960876 310.878326 134 126 125
312.801086 255.441833 319.696777 110 103 99
289.451843 396.494598 298.640228 129 119 115
324.651062 430.230103 278.373444 156 149 149
310.327332 416.936951 289.378357 157 151 152
266.756012 473.729614 283.852020 142 131 126
303.035400 447.408478 287.361694 151 142 141
312.824432 509.576996 250.970291 163 156 157
117.086929 549.121216 99.438835 70 68 68
126.793167 645.250366 128.174408 65 65 67
68.490166 721.219910 112.607544 80 74 72
44.176414 680.385803 132.628708 101 96 95
94.262901 682.049500 257.590942 133 112 97
98.024918 659.507080 227.294479 84 77 72
83.180824 761.980896 183.395737 141 133 132
148.134583 585.314514 57.457874 117 107 102
167.316376 611.978149 83.051910 97 89 83
230.889191 534.757385 91.526360 89 78 68
245.545074 528.573914 97.309669 94 82 72
229.888290 571.136963 92.815102 120 115 115
162.858887 597.810242 234.569946 106 100 98
189.372818 612.830200 249.442978 108 104 105
208.169205 711.286194 54.339905 91 85 82
109.487602 678.423096 281.955231 126 123 125
229.310120 618.695984 284.486572 108 103 103
204.963745 624.527283 349.931244 127 128 135
136.598785 658.615356 314.956940 104 96 93
163.824799 721.291138 263.979919 76 72 71
250.172119 736.998230 296.279633 101 89 83
89.078003 804.360168 173.473801 112 104 102
115.424187 826.067566 177.102310 177 168 167
121.341782 844.068481 147.826752 148 137 134
150.301636 781.898743 255.438492 61 62 65
139.429474 810.179565 196.265411 94 87 85
210.372681 887.342468 154.259354 118 92 89
258.019836 881.964233 196.400635 133 104 93
183.792145 892.691895 169.364853 129 103 103
219.069626 903.952515 169.536652 92 77 71
206.424362 930.506104 167.029144 57 56 57
245.229507 941.130798 180.627487 56 53 53
216.844284 989.813782 166.603699 174 162 157
195.422318 1015.278625 210.114319 173 149 149
258.758698 808.463318 318.437805 49 52 59
201.551666 917.228943 259.469940 129 108 100
192.784012 953.018188 274.691040 152 140 134
239.599396 929.173279 269.873077 124 110 101
243.431229 948.587952 309.088898 123 116 117
225.673645 1007.802795 265.369873 199 182 172
307.492889 519.542053 136.322006 129 122 120
313.835144 515.639282 173.930481 120 114 112
302.183960 626.880310 156.574005 59 57 57
328.225250 594.314819 208.005234 100 90 84
274.637634 713.590027 82.233711 81 75 72
324.675568 725.674194 121.750000 95 89 85
298.057037 506.950897 267.782043 156 149 149
262.900635 687.435852 271.374054 62 59 58
267.446503 705.442627 310.490234 117 105 99
314.818359 719.072571 260.118988 36 34 36
259.092957 786.916809 85.988205 131 126 128
285.020660 843.874634 226.910522 63 59 60
261.088959 935.696472 214.809341 55 51 47
273.150085 931.580933 260.623383 61 59 59
356.399200 795.720642 315.313690 151 141 137
236.185379 93.538406 83.818451 133 126 125
179.707657 118.807304 127.029709 96 90 89
220.590881 87.840797 145.259705 80 78 78
167.426590 174.562180 73.361916 71 68 69
155.735550 312.132233 107.094048 110 107 107
215.298920 273.344666 90.281219 126 117 113
240.547592 459.706146 119.816162 105 101 102
140.675491 442.095520 203.092270 137 131 132
235.584152 412.962402 188.966354 90 88 89
317.303284 63.284676 243.501724 94 90 91
311.076569 108.442039 243.994705 84 82 83
276.054169 182.070633 255.099106 111 106 106
313.138245 157.777420 296.113800 119 112 110
295.777832 484.460999 143.643768 137 132 133
337.571655 323.800323 273.230865 140 134 134
32.358242 665.336365 141.239075 105 100 99
104.436714 654.487915 187.973541 54 53 54
64.871765 687.232727 217.352356 169 136 121
114.438301 735.469971 178.726013 86 78 73
149.199493 530.936218 50.389442 107 101 98
229.131531 607.864746 96.987930 78 70 65
154.580383 559.881165 229.402206 61 62 65
138.188400 643.258545 105.233192 87 84 85
94.530136 669.593079 257.673706 120 106 95
112.829124 688.453308 282.646606 122 120 123
138.561615 564.725525 312.763763 99 102 109
196.482590 728.936462 284.465088 79 77 79
202.681961 673.368469 301.037811 54 49 48
218.619888 676.826172 342.791748 82 83 87
230.118896 746.695190 273.346893 102 94 89
156.663986 871.141296 117.139435 59 60 64
165.771713 829.174561 209.954636 119 110 107
174.983215 927.254578 194.600876 90 84 81
186.778076 896.848816 228.320053 104 91 82
265.333862 1002.762878 192.646469 170 156 148
199.227707 933.890808 261.771759 94 82 75
242.893982 902.287598 268.446594 150 123 116
301.053925 545.038391 146.228531 92 79 68
311.102753 620.865540 162.289627 73 70 69
299.643860 662.080505 95.602707 112 104 101
313.511536 717.704346 95.453918 104 95 90
315.199951 672.222717 234.579010 108 98 93
311.159698 787.010864 359.342224 144 116 103
356.906525 792.268738 265.886505 106 97 94
347.135895 787.469849 343.752777 185 174 171
214.157120 38.423595 64.726738 99 95 95
196.859772 101.256874 78.999237 79 78 80
231.342010 105.532257 99.584579 80 74 71
172.354553 7.544332 169.282227 119 109 104
165.886871 199.174545 112.294090 111 104 102
155.319443 192.854019 128.986053 127 122 123
178.503662 192.164124 143.067688 108 105 106
127.583946 475.082794 112.520042 131 127 129
185.977463 370.527771 90.061943 94 88 85
223.671432 298.374268 128.032532 89 81 76
228.799500 293.757263 143.389374 93 90 91
246.919083 331.980194 216.719849 86 84 86
221.051178 408.393860 218.819931 66 62 60
214.766235 479.325287 263.136078 115 104 99
264.041351 171.265137 258.881226 88 84 83
270.380280 177.696533 247.252960 113 110 111
327.258911 14.608826 366.575745 78 70 66
369.129974 114.192406 256.548370 109 100 96
321.218262 200.507706 286.122284 116 113 115
343.589417 196.884613 282.051605 137 129 126
290.657684 324.869904 211.142731 111 108 108
276.282074 424.589386 153.850189 114 110 111
123.632248 563.974487 79.813522 97 90 86
116.358345 602.410339 86.693817 59 62 67
125.192924 613.576233 77.596581 44 48 53
46.393124 644.228271 191.474548 127 124 125
81.219666 698.686035 109.368813 102 99 99
89.412247 715.526794 112.264297 91 85 82
121.811089 722.195801 119.530823 51 51 55
195.137802 549.407349 38.692596 97 89 85
225.516418 551.471375 248.435074 139 136 139
251.105453 567.702393 252.943970 52 53 56
177.178955 766.302246 62.605831 97 89 84
176.022751 751.001770 71.937988 77 71 68
224.584961 677.581848 70.920738 97 91 88
148.628479 731.732788 239.832962 108 98 92
196.011551 598.410095 333.649536 74 73 76
209.790848 577.578674 352.773590 62 61 64
231.378525 575.474426 359.020782 65 64 66
182.542435 711.425354 293.908936 57 57 60
236.995316 732.884644 280.010040 93 85 79
152.553146 801.719971 240.796631 53 54 65
174.484146 861.518982 190.430176 114 102 96
154.047546 939.769348 194.455063 90 86 86
219.088882 830.459717 290.385284 46 48 52
244.922684 933.403320 284.208496 106 102 101
208.882431 974.110046 277.139893 178 163 156
253.780609 567.418274 100.835304 109 104 104
364.396088 610.203918 146.165588 116 101 89
281.527679 741.813171 88.843163 105 96 92
286.563965 734.513489 86.257385 108 103 103
317.196472 712.541748 113.732971 47 43 42
330.314362 738.282837 248.685486 82 79 79
290.945984 695.761902 309.999786 92 86 83
263.149261 721.688538 288.601807 66 62 61
254.687485 754.665649 274.690674 68 63 62
314.704712 754.295105 378.510986 178 172 175
332.942596 705.870056 336.722595 114 110 110
374.812378 754.925659 336.623688 110 104 102
259.460388 857.375000 139.962311 139 127 122
263.881256 986.218994 196.067368 106 94 85
288.157257 772.457092 279.650024 97 90 87
124.164215 17.033401 176.419418 109 100 95
154.108856 27.473675 116.707535 103 96 93
177.262451 24.647221 80.360100 77 72 70
175.516968 56.573540 82.163040 93 89 90
180.858322 80.677109 79.540001 104 101 103
172.885620 96.858986 98.824509 80 76 75
205.167374 14.285448 71.099770 86 80 77
238.433731 41.649040 105.913292 78 73 71
238.879288 92.650620 92.761383 122 116 116
182.910751 125.229042 140.942032 122 116 116
216.221817 183.596832 74.630585 93 86 84
238.464844 139.055740 98.020340 82 77 75
153.958450 163.425507 126.880653 90 79 72
177.664795 192.087219 144.067078 116 111 111
149.932144 212.962311 127.411491 104 98 97
147.047562 239.570190 162.704758 99 94 92
227.311096 183.603073 162.292786 113 107 106
230.798035 198.342880 149.582062 103 98 97
117.057884 389.548004 127.192955 126 121 121
185.953079 270.495331 91.578972 106 102 102
210.354477 364.944061 100.694962 132 128 129
218.035461 263.101135 157.166687 95 90 88
210.798904 290.517639 159.525742 93 87 85
229.585236 383.226257 163.937576 88 86 87
232.487137 338.949524 247.589188 91 86 85
244.210968 326.412292 245.079071 80 78 79
146.241226 412.239655 94.232811 115 112 114
165.134415 420.631409 74.798531 119 115 117
161.228226 442.846008 89.468803 98 93 92
182.938629 426.354462 79.154137 94 88 86
218.428482 411.766846 110.554184 123 119 120
130.478668 422.745270 197.526230 145 140 143
185.618393 453.533600 229.800156 92 88 89
242.629181 408.985046 179.023041 68 67 69
244.413513 435.063263 148.061646 63 60 59
241.300034 419.276947 177.135864 70 70 73
220.336212 411.880402 200.261169 74 72 73
236.572052 344.616852 283.265625 132 123 121
335.007721 0.736417 252.987732 67 62 61
338.329193 86.372589 203.231201 100 97 97
324.280487 112.350655 211.116455 79 76 75
361.023834 83.895111 216.024887 97 93 92
288.560669 182.459793 233.922012 89 87 88
265.619720 196.755569 246.027863 87 80 76
342.007172 171.506851 221.921722 102 99 99
306.851807 122.134483 263.420441 115 109 108
376.069977 89.334679 274.129578 133 126 124
319.710663 217.335129 291.629944 120 117 120
281.393494 287.827118 238.445297 85 82 82
299.989685 295.063995 219.812439 59 58 59
287.312744 353.034698 185.976837 112 109 110
325.680878 374.198395 211.872894 126 121 122
254.857925 284.117554 300.304108 90 82 76
273.306915 282.201691 315.614655 111 102 97
284.917419 265.428925 319.855255 112 104 101
260.579010 358.974518 303.303314 148 144 147
256.846252 381.428406 303.931549 110 103 103
282.433075 350.617920 307.261353 83 72 63
327.323212 261.702179 296.805389 142 136 137
256.699951 413.510498 298.392456 149 144 147
295.131012 406.929688 296.177979 159 152 153
261.911835 485.591309 280.513855 143 134 132
266.287598 491.415588 277.227905 172 167 170
86.879532 596.982605 142.468582 56 58 63
93.442154 607.445313 130.831360 33 34 37
92.946838 695.297485 119.153061 91 88 88
24.205143 688.046570 161.260818 98 90 85
56.505543 695.905823 212.321259 183 176 178
59.114265 713.471741 188.474915 99 84 83
77.813622 672.248535 128.960754 56 56 57
71.945320 685.568848 235.925110 146 119 104
113.667358 667.735229 243.131821 56 53 53
114.746292 751.565552 190.365646 127 118 115
168.108551 548.950867 46.098808 108 99 93
214.359009 632.468750 85.626053 54 52 52
230.242844 632.381897 98.440125 95 89 87
136.666763 626.874146 182.031174 99 95 96
188.010254 581.246094 246.293991 54 55 57
146.353668 672.232422 93.571426 77 71 69
146.094543 687.296082 94.892456 92 84 80
132.391724 733.555542 103.852516 118 113 112
220.332260 641.970459 98.061569 87 83 82
219.337738 698.723999 50.768147 96 91 90
226.839127 727.190552 53.265224 88 80 75
239.011063 727.187988 67.310448 70 64 62
146.768433 756.671875 252.833145 47 47 49
111.459152 673.836548 261.499542 105 97 92
239.618118 566.429749 373.965820 68 69 71
208.102951 615.477173 276.340118 87 84 84
200.053070 598.697510 350.299927 47 49 53
251.569824 527.531433 400.832245 55 57 61
237.127762 563.642578 393.857208 114 115 122
166.985580 655.714478 321.673187 81 76 76
187.637421 675.573181 318.013245 83 81 84
176.747116 769.888672 273.791718 146 144 150
235.469116 705.518188 285.666992 92 85 82
193.561737 731.030457 271.143951 67 63 62
237.180710 742.821533 276.019806 61 56 54
118.964516 813.627441 96.718666 136 129 128
246.794083 775.001465 84.205086 125 118 116
142.205933 789.361572 223.850693 119 110 108
172.170837 871.075195 132.674728 63 59 64
243.953476 822.105957 246.383041 49 48 50
239.372574 875.536011 153.815781 76 68 66
207.374634 862.486145 218.647156 83 71 62
245.447922 884.424744 230.878860 95 81 71
164.352097 949.064209 174.025055 131 121 116
197.581284 971.607544 152.521957 123 112 105
192.546555 1003.628052 169.302689 110 110 115
212.054230 1015.761108 224.273865 207 191 184
262.354553 1008.707397 237.765594 200 182 172
215.014160 841.579956 272.960480 88 80 76
249.237991 851.412170 293.208588 182 170 167
175.244125 942.562073 254.148712 112 105 103
215.301605 934.490967 268.018036 98 87 80
249.185532 935.936829 276.262329 67 66 67
240.430038 997.725220 276.101135 221 203 193
304.290955 584.485657 124.065193 76 74 75
313.572388 617.358459 138.762070 83 77 73
307.117004 589.408020 229.875153 75 70 68
299.911224 623.376831 223.844849 87 81 79
366.809662 586.383728 156.034302 102 89 78
269.384186 715.930054 77.936150 94 90 89
330.529968 735.804199 214.135559 84 76 71
344.334656 748.021790 235.351364 100 97 97
288.427887 720.924622 269.255768 30 31 33
294.061920 731.697449 267.156036 47 47 48
298.936768 724.503723 335.387360 108 102 101
301.704285 743.706299 369.522644 115 99 93
339.828644 713.472778 367.840088 75 71 70
281.951050 815.921082 110.284599 106 94 87
301.064728 780.805908 103.546204 103 99 99
281.278809 848.468262 142.344116 144 131 124
325.852814 797.745728 154.090027 121 109 102
279.644806 940.053040 233.676071 55 53 53
288.835388 963.018372 221.347687 128 121 120
269.029297 817.552673 288.476685 55 50 47
289.854645 787.352844 349.178467 186 158 143
345.219788 808.682983 264.431854 175 162 157
190.603851 10.767264 108.076828 81 76 74
172.009567 55.723900 105.276619 87 83 82
218.103409 14.050674 59.409462 50 48 47
227.921524 45.558586 79.842125 99 94 93
236.657440 88.376228 83.111786 94 90 89
173.689789 12.975303 197.195816 113 104 100
204.063095 25.705891 138.827454 75 69 66
218.834534 147.168915 75.985260 110 107 108
240.700760 156.653549 104.006340 97 90 88
214.570343 217.433044 77.148575 122 116 116
238.019775 218.123474 159.929947 119 113 110
221.647278 220.778870 172.742523 91 87 87
131.927841 333.219055 138.586075 96 92 91
111.268288 362.252808 160.967773 122 116 115
120.108078 401.175873 151.404358 106 103 104
109.911217 476.045074 151.771942 135 129 131
167.573990 338.121246 110.818314 112 109 110
196.104218 279.121735 81.897285 112 107 105
198.195648 287.470245 95.484589 96 93 94
216.285095 360.193939 105.587395 88 83 81
169.552200 295.858582 194.269257 83 76 72
226.798737 365.183411 252.519043 103 100 101
138.481567 453.360504 91.065369 112 107 107
192.048752 380.155792 84.465584 132 128 129
133.219391 403.065765 201.401901 116 107 102
141.992416 468.990784 209.048035 124 114 110
126.432213 486.260803 202.148117 130 123 121
219.548248 397.486633 233.078110 88 84 84
198.357758 473.125519 253.324890 144 139 141
243.054031 461.831787 282.597107 136 125 121
245.474136 490.429993 416.540741 79 80 85
336.382690 17.352854 209.525101 82 76 73
351.084045 14.804995 233.924744 86 80 78
294.042755 246.274582 224.456497 63 58 55
344.936249 130.806976 208.611191 81 78 77
354.013428 148.683197 221.124115 88 80 77
346.253265 61.264423 300.271881 149 134 125
374.979584 30.849575 255.332687 126 115 109
319.222809 74.636543 273.831177 113 101 94
312.832916 185.776886 279.342957 122 117 118
257.013123 202.794067 258.640625 122 117 118
298.260803 244.883148 312.738007 106 101 100
277.746490 377.591431 175.852844 94 89 88
291.985840 334.354126 208.670364 92 87 86
335.416595 372.788330 247.642517 139 133 132
293.348938 454.871643 154.893738 129 124 125
302.656036 476.403076 148.673904 133 128 128
313.200775 496.751434 153.045776 96 88 84
323.836243 506.676971 184.740021 135 131 133
334.257050 476.829193 216.016052 126 117 114
336.844421 446.271820 249.519821 112 101 96
349.432343 260.039673 271.561066 133 125 124
331.230072 269.136353 295.968445 100 87 73
326.367950 273.540558 297.086456 133 126 125
324.580902 322.402649 291.322357 103 88 73
298.269257 400.057831 303.624084 139 132 131
304.859589 445.736603 288.699402 141 130 127
112.465736 539.883301 116.680466 85 81 80
100.992554 564.727234 105.432076 75 72 71
102.328430 596.364563 103.689827 57 60 65
52.874146 631.355469 180.862991 122 120 122
64.270859 696.455139 113.609268 91 83 79
82.686615 723.977539 101.598137 119 115 115
27.943428 672.150635 169.725082 86 77 70
70.589096 766.509216 162.940659 141 133 132
79.081573 649.147339 164.038208 73 72 73
90.970200 693.107300 133.233780 67 66 68
106.951981 691.168213 142.776794 63 62 63
82.180382 696.934998 231.263580 162 132 116
75.989311 762.896973 165.083221 144 136 135
145.900391 626.998596 109.025726 76 74 74
217.732697 560.291260 55.998268 74 68 63
228.871887 572.409546 71.924843 71 63 57
213.773407 573.684753 42.620937 89 81 76
207.908020 603.633240 64.404076 98 88 80
206.016891 632.180237 79.134880 35 38 42
174.662781 578.076965 241.882904 56 57 60
182.602234 646.524170 83.083496 66 66 68
251.690475 642.272217 108.135315 76 73 73
197.203461 701.520020 54.811188 88 84 85
225.137390 713.340698 61.712250 86 80 78
177.641739 584.884888 323.561829 56 55 57
230.528366 588.054749 254.033005 45 48 53
234.423065 625.079163 262.456085 58 58 59
240.457672 620.150085 267.637756 77 75 76
229.381134 592.164063 351.237396 64 65 68
217.516724 558.385376 397.182770 92 92 97
241.838028 509.016968 407.655945 111 112 118
226.047653 566.010925 389.829803 101 100 105
170.323700 670.425842 309.960327 72 72 76
152.445694 735.340881 258.161926 61 62 67
210.134232 696.564026 314.538452 57 61 67
233.679321 645.368530 289.974304 66 61 60
240.375809 665.894653 338.375885 64 64 67
212.773438 729.855225 276.491211 62 59 59
218.889084 751.688721 270.649200 99 88 82
123.360199 783.686035 94.658691 91 84 81
98.871849 833.417969 139.172256 109 99 94
185.376083 776.065918 59.016384 137 129 126
135.842285 824.632751 93.959099 131 125 124
162.284546 783.795776 83.839195 84 81 81
157.783478 807.368652 90.111885 62 61 62
183.849960 817.966064 80.774666 89 83 81
174.081711 860.874268 95.549385 54 57 63
190.386032 835.716858 92.776688 104 98 97
169.742905 865.705505 115.703903 146 140 142
141.918701 774.221436 238.310349 88 91 97
170.630005 872.564758 150.627655 172 160 157
175.575043 865.088318 198.675125 120 89 86
253.300751 878.329468 163.317566 135 128 127
215.615280 862.837891 215.053787 86 69 64
179.098480 933.146057 186.549194 81 81 88
186.287811 911.457458 244.158035 131 113 104
164.237396 934.850403 228.530930 145 110 103
248.009430 823.415344 308.559967 172 148 141
201.556320 924.061646 265.162994 157 131 122
242.389938 984.579224 290.876160 123 111 107
280.527161 523.462952 109.101860 115 109 108
293.359711 592.509521 109.288345 49 51 56
294.482391 598.936584 98.702637 104 97 94
305.864044 594.971619 134.672516 96 87 82
328.940582 635.793640 178.288910 103 94 88
326.764069 592.056946 222.044678 103 94 89
299.033905 680.628296 93.858711 107 100 98
311.332916 700.550537 102.363258 125 118 117
315.248901 664.008423 100.073097 104 97 94
314.598358 671.702148 118.538475 87 81 79
330.486542 650.200073 164.616089 125 115 111
268.919495 517.678772 265.671753 167 162 165
290.201599 731.360413 349.931244 118 112 112
278.827881 774.729919 93.219917 104 97 96
262.674255 792.970581 250.245560 126 118 117
306.512878 853.405334 199.031509 70 64 64
300.723663 835.389832 236.089478 123 112 107
325.216522 799.562073 131.570389 114 101 93
342.905243 771.539490 172.358902 99 89 82
268.694427 923.206604 222.060120 82 75 70
279.055786 940.156067 208.327011 72 68 67
263.393524 823.776001 323.249939 96 80 77
320.778564 794.633972 350.663452 214 206 208
308.354431 791.872253 357.444916 200 163 147
353.574371 805.990173 274.614685 169 158 154
358.564667 793.025574 325.807343 174 163 161
349.633728 777.115601 356.908691 155 138 126
257.243347 937.861267 291.147034 107 101 98
256.951141 973.230530 276.498352 153 136 125
259.878998 960.283752 289.598602 166 157 156
175.801376 232.068970 81.761398 82 79 78
226.658203 149.427261 153.526932 76 73 73
240.833618 197.205185 161.845230 102 95 92
111.133545 456.120422 191.341736 106 97 92
234.108459 360.309052 230.430939 101 99 102
145.762512 506.164215 214.494934 126 117 115
243.278564 360.209412 286.533936 129 119 116
225.371155 506.002747 260.652405 141 135 136
355.366516 162.712677 226.261642 80 72 68
297.200043 341.016632 200.706146 110 105 105
138.457718 520.111389 101.273682 82 80 81
175.112015 601.635620 54.710125 124 112 104
143.610138 626.548584 119.056252 72 71 73
194.677338 624.226074 52.155205 56 53 52
227.273941 593.164917 86.145309 78 70 65
214.259827 532.127686 246.518097 137 133 136
191.429535 560.765076 241.073273 56 55 56
230.109772 747.373779 66.889290 125 118 117
121.104797 694.764648 293.927338 124 118 119
108.158859 704.995605 263.533966 150 123 110
233.683807 720.344910 272.933441 76 71 70
129.144135 805.556274 187.241028 152 140 137
147.129898 805.383545 212.626434 132 118 112
192.939941 878.036438 150.577942 131 119 113
232.979248 886.650574 169.223541 117 90 85
183.108627 946.503235 167.869736 54 56 60
261.927155 697.829590 79.141914 107 103 103
331.599335 717.926453 219.194931 107 97 92
330.166077 842.128784 218.509583 138 125 119
268.222534 994.545410 229.746735 184 167 157
308.764099 817.644897 279.215759 123 113 107
171.323441 14.953367 109.412201 81 77 75
187.468842 3.606901 123.611099 80 75 74
222.687408 51.444210 63.846069 86 82 81
200.203125 11.327370 88.135689 90 85 83
223.101242 14.476299 58.056820 42 42 42
234.037109 56.801704 87.749657 85 80 78
227.427521 66.605621 67.566032 101 94 91
188.395828 10.325336 165.173676 121 111 107
185.546188 39.138371 165.888351 144 130 121
234.278687 178.721390 131.623566 107 102 102
200.266083 251.289841 77.703728 134 131 133
233.347519 199.636734 87.479767 107 101 101
155.604324 141.620377 133.115494 109 105 106
170.398331 248.391998 195.657013 103 98 98
230.344788 181.592331 151.380081 75 70 68
225.588272 234.908310 137.559158 97 92 90
119.043983 432.135101 189.270218 129 122 120
106.064651 465.570221 128.460953 124 119 120
107.262230 497.749451 143.073563 129 125 126
149.393158 365.604065 106.888992 108 105 106
168.905411 372.871460 98.504997 115 112 113
224.187195 316.158142 109.231644 121 115 115
146.208755 309.225433 168.365265 126 120 120
245.270233 316.764313 237.334900 86 83 82
218.652786 340.649292 175.728653 83 81 82
158.234177 493.086090 91.813690 99 92 87
151.526077 499.091064 97.641266 112 109 110
144.268250 428.830566 209.651093 140 135 136
228.698090 391.899261 139.369751 111 105 104
225.192719 404.148071 195.645645 78 76 77
258.271576 284.432373 290.748657 100 91 86
241.087158 366.464996 287.618408 128 122 121
246.446213 379.116150 290.824463 113 105 102
322.108765 84.323265 207.794174 86 83 83
359.275421 116.339790 217.661301 105 100 99
292.210358 169.524292 270.101471 150 144 145
310.209930 166.567917 274.068970 135 128 128
328.470062 152.150040 291.127136 96 91 91
259.547729 293.808197 238.128998 83 82 84
268.981171 456.840546 132.786102 121 117 118
343.030029 401.549591 231.087524 136 129 128
332.122162 421.815735 203.957230 82 72 66
329.577728 457.255310 223.615555 129 123 122
257.734589 251.805298 263.359406 73 66 61
265.785309 320.850708 297.039307 131 124 124
310.452850 291.924683 309.456299 133 127 128
291.685791 365.461731 310.791016 153 144 142
271.416443 440.090424 305.575287 139 132 132
109.942886 574.314636 95.950859 69 64 62
116.825005 626.716980 82.363930 54 57 63
118.175735 619.323853 104.427284 50 52 56
46.164852 633.087952 174.233536 121 118 120
115.350975 584.349060 163.205582 50 51 54
122.947624 581.110657 174.129608 48 50 53
63.217556 686.657410 115.531219 93 87 85
51.167816 726.756287 115.599564 79 73 72
78.294090 703.307190 115.643288 100 95 94
111.687401 687.297241 129.871246 75 72 71
66.880257 743.131531 110.941872 111 106 105
116.661865 737.416992 113.825516 75 72 72
28.368004 647.458252 158.218018 124 118 118
28.460070 661.791443 156.228241 131 126 126
31.648926 701.010864 170.230026 113 104 101
51.394032 658.881714 202.334244 86 74 64
74.188873 739.343994 190.484543 142 132 129
74.868378 753.939392 181.100464 143 135 133
102.175339 697.919739 216.583603 100 84 74
113.681465 726.623352 205.626892 114 104 98
98.264847 706.411011 230.816742 148 120 107
129.361435 508.693970 118.381447 70 69 71
232.127350 533.835938 82.292816 80 68 58
211.535721 605.129150 79.893669 67 60 55
212.559265 608.351440 251.120026 120 117 119
149.015533 657.809265 87.375389 96 91 90
142.208817 688.576904 97.512650 81 73 69
200.705795 647.643311 44.474926 50 47 47
197.527817 731.049805 41.332977 123 118 117
215.646591 758.730286 65.004860 95 89 87
165.630188 641.997681 291.977539 52 51 51
243.388931 548.657227 255.100464 127 122 124
215.789139 610.382751 266.706360 62 62 64
222.292770 623.676575 361.377716 117 116 121
155.294510 665.496704 319.032623 72 72 76
252.568008 672.998352 278.473633 63 57 54
222.667770 687.844727 308.657898 131 121 117
80.698181 798.574158 130.668793 130 123 123
137.225677 846.489197 113.691986 128 117 116
140.267212 854.811279 122.224739 61 57 60
140.904282 858.614990 118.306038 62 60 63
160.677155 866.202026 93.315376 187 176 174
217.932816 807.612305 78.338150 108 96 88
234.164749 827.565918 119.765991 142 131 126
131.258286 849.241882 158.329681 107 101 99
145.643295 871.896790 142.426682 67 70 78
152.562241 850.018188 195.403351 121 108 99
160.691025 848.479736 193.942337 115 104 99
190.963257 845.197327 221.298111 68 53 50
210.617477 858.765076 137.734970 167 156 153
224.501343 843.239014 240.252380 37 35 38
219.490128 938.033203 154.206070 58 57 58
197.442337 1010.140686 200.762375 138 126 119
173.949936 777.664978 272.455536 118 120 128
242.198837 789.850037 260.591583 77 68 62
253.124573 775.973816 263.259186 77 65 59
242.709030 868.268188 263.349731 65 66 72
264.125610 614.267212 113.103294 47 47 48
281.441132 621.551758 119.476852 36 37 39
289.790161 618.494812 114.408920 102 94 91
305.820190 532.972839 135.767410 98 84 72
313.863129 532.537842 167.187561 70 68 70
323.213409 561.194519 167.991959 86 83 83
324.522644 518.546753 220.142258 114 105 103
310.100525 538.363586 229.849197 139 130 128
314.301056 602.885376 235.674515 49 51 56
311.491791 636.837097 224.663757 109 101 98
327.511078 549.149109 218.511993 100 92 86
328.909546 610.290710 196.202011 98 87 80
302.504608 648.401306 113.987083 77 75 76
312.546204 755.475037 107.529076 84 76 70
321.773041 756.669983 112.559631 133 122 116
321.915405 642.714355 176.334961 117 109 105
332.358124 700.238281 205.703186 110 98 90
333.477325 734.347961 197.651215 87 80 75
281.096802 678.453491 265.807495 110 104 102
308.511871 737.618347 291.948212 100 96 96
376.490601 747.006042 311.641754 114 106 104
367.440643 745.744202 332.209351 117 109 107
315.773224 793.607666 122.743752 115 106 102
306.071777 812.269653 125.800537 85 79 76
279.020721 866.731934 186.140976 103 93 90
306.431671 863.403564 198.164398 133 122 118
298.133423 846.709229 229.281265 76 66 61
278.755585 947.890686 255.828537 139 128 122
259.777985 1005.400085 212.001740 179 163 154
265.205444 796.973206 327.468597 147 128 117
351.861633 795.098267 293.310730 82 80 83
324.158752 810.472595 281.897308 105 88 100
345.843201 778.248047 369.502136 231 224 228
217.280975 2.297131 83.671074 56 53 52
230.557785 107.027130 84.421585 88 80 75
225.828842 148.855453 94.653984 119 113 111
175.952530 126.993958 133.399490 90 86 86
166.582291 201.004776 148.460907 100 97 98
200.341064 164.332642 155.953125 93 83 78
225.774948 217.833054 169.044403 81 76 76
103.027565 493.879425 170.033905 120 114 113
160.298477 272.611572 186.358154 106 100 99
129.676071 346.888458 191.773544 112 107 106
185.149475 374.168243 197.897202 98 92 90
236.903214 311.856720 258.164642 116 112 113
225.167435 475.005615 97.325249 111 105 103
248.675034 430.024323 160.966934 86 83 83
223.166809 444.431488 271.398438 134 128 127
337.386597 8.094229 295.006653 88 81 78
346.088562 32.396633 368.333801 180 167 162
277.365631 212.076691 283.252472 102 98 98
326.606750 337.839813 249.063461 119 111 108
265.805450 308.532318 305.872314 110 99 94
326.892365 314.891663 291.598083 108 91 76
328.147766 351.220673 289.094543 105 89 75
284.209869 464.281586 287.120087 166 159 159
65.041840 759.159790 123.193604 114 108 107
53.768490 670.731140 216.804825 123 104 90
139.760941 565.447510 61.496853 107 99 94
149.494644 706.908936 269.724609 94 86 81
131.366516 781.992126 228.262543 70 72 78
205.459122 845.315002 217.244125 123 94 88
245.648972 871.613403 223.877716 71 64 59
198.867874 907.992859 172.488785 102 84 79
196.009491 893.298523 243.608597 90 83 80
323.645874 691.829956 112.233871 79 73 70
308.356140 736.482849 257.240234 56 55 55
317.458618 653.703979 200.818802 120 113 112
329.178040 734.651306 253.003677 89 84 84
335.075653 728.786499 288.469910 96 94 94
345.292145 718.559875 290.643585 107 104 105
363.681702 737.246216 367.390320 129 121 118
301.002380 862.199341 188.193298 165 151 144
258.473328 897.752930 232.014847 110 92 78
284.869659 981.911011 239.326340 106 95 86
184.021545 113.493240 87.226837 82 81 83
144.748459 8.080974 155.496597 80 76 75
155.254379 38.275532 137.133087 133 124 121
191.576508 28.020807 161.877777 116 108 104
171.577896 174.149307 93.993813 78 75 74
158.099503 218.785553 117.279633 99 95 95
162.838348 192.702301 96.092628 103 101 102
163.235519 243.703857 89.677261 88 86 86
169.863724 207.016479 154.942139 112 110 112
198.548111 138.532639 160.399323 106 98 96
118.032043 364.516846 141.407669 86 85 87
112.045769 414.674744 186.105453 130 125 126
110.713554 402.370239 178.992142 132 127 128
114.372383 482.344269 132.913940 127 122 123
156.849045 350.282623 110.848114 95 92 92
136.196091 270.475067 159.255569 96 89 85
134.511230 377.018097 133.978714 79 73 70
148.748886 344.600128 203.084946 97 86 78
213.059387 298.193420 171.544373 68 62 58
238.682266 346.514496 237.868973 95 93 94
182.990952 455.582886 79.611511 131 127 128
176.748779 414.087036 209.469604 108 104 104
129.250610 459.690033 204.378387 136 129 129
168.754715 448.065765 215.293655 95 89 87
247.259277 453.946503 135.746246 94 91 92
219.593689 364.419983 260.729492 100 98 99
238.258759 496.062073 412.231201 74 76 81
379.739807 27.546686 246.224594 120 109 103
276.244476 175.038437 238.841797 104 99 99
312.817932 144.652054 211.677719 75 73 75
301.282562 168.063416 224.032654 80 78 78
351.959839 71.195656 289.294159 116 105 100
324.256317 169.103485 289.617981 128 116 111
330.592224 185.940277 288.373627 167 160 162
338.537506 266.756287 233.574280 126 115 108
260.029816 472.142334 124.469376 108 105 105
287.812775 289.114960 324.663391 120 111 106
335.732666 370.017517 259.140381 124 118 117
104.014214 559.673828 113.005821 87 82 81
120.841118 560.625366 96.012039 75 70 68
49.780247 639.764099 155.902390 86 83 84
112.398575 533.176392 152.745438 130 125 126
38.632740 689.953308 185.189865 129 121 119
30.791359 686.714722 198.363525 166 158 157
58.053158 761.806519 149.331314 76 72 73
115.084824 644.363220 212.669510 91 84 80
85.719284 757.147156 184.400070 130 122 120
124.840584 610.714294 83.659767 112 100 92
164.436310 625.956360 103.146667 54 54 56
220.286850 605.099548 85.348946 67 60 54
131.348114 593.048645 196.990433 121 113 111
145.479828 616.986633 232.039337 61 59 60
143.557846 575.860413 309.181580 78 80 85
163.986908 635.182800 332.612213 132 127 129
214.188171 563.649841 381.212006 42 46 52
242.923889 523.435303 387.988617 69 70 75
138.203247 648.504639 298.909912 58 58 61
222.981079 730.410583 275.544464 96 88 83
128.758133 799.667480 91.271042 110 104 104
110.728722 836.829712 127.340233 117 105 98
175.219330 804.081421 81.183685 99 95 96
216.003983 773.467041 61.736095 88 82 80
127.149971 796.667053 194.986496 162 151 148
192.829468 803.388000 249.205399 108 100 96
215.328613 863.833435 232.566986 60 53 49
178.999847 904.212097 210.144104 87 73 70
235.019516 937.357666 166.165955 49 47 47
253.106155 1002.376953 254.547333 198 181 173
245.130417 941.608398 304.505676 79 79 83
305.299194 549.243408 134.819748 102 89 78
326.423370 573.709473 226.828369 110 99 92
320.794067 558.120911 227.070557 106 98 94
317.001556 699.398743 242.102493 98 92 90
320.703400 762.495483 136.879333 108 98 92
354.614258 752.073242 250.897842 83 74 68
298.369507 748.109192 255.998856 57 56 56
348.525177 732.535156 265.869720 87 82 80
334.443054 712.727600 322.017426 97 94 94
318.674377 776.360779 127.034172 110 103 100
292.983795 829.926208 119.474014 121 109 101
273.484467 864.978638 167.181412 144 132 130
276.065369 868.957458 208.321289 137 125 119
311.615356 842.070801 218.005600 156 142 139
343.546814 789.637573 204.900162 87 76 68
264.615387 916.373169 232.719421 92 82 75
253.193954 1001.394897 243.076660 201 183 173
369.465851 769.673279 332.958221 128 118 114
234.654160 44.166115 100.800743 64 59 55
195.197556 124.142593 67.378464 82 77 76
243.914047 88.046257 120.471375 92 85 82
181.540115 98.422119 137.812622 74 66 60
228.950592 125.241669 125.726883 90 86 86
189.820038 176.217270 66.193077 117 115 117
155.975128 212.391083 125.249260 85 79 76
159.470703 170.338928 132.394669 120 114 115
151.649597 251.472000 165.754730 111 106 106
208.422089 138.674469 147.740448 96 90 88
235.621979 137.286392 131.252884 91 87 86
111.990242 430.786774 157.384644 112 107 108
199.522110 363.372253 102.175339 100 96 96
140.955811 257.582092 151.605957 121 117 119
204.243225 322.154572 189.244553 60 54 48
195.913528 413.782562 200.657364 83 80 80
206.732773 423.333038 220.536316 78 74 74
204.339813 497.540222 249.333038 156 151 154
217.273453 400.269623 269.402191 107 99 95
207.625549 401.825195 264.199097 102 96 94
310.799500 103.624123 237.774277 68 66 66
294.273499 139.785019 236.329178 73 70 70
316.817291 172.530350 204.989014 79 73 71
312.062622 51.812145 255.535080 95 90 90
344.342133 5.632037 269.069489 55 53 53
350.666321 19.181276 298.918793 88 81 78
328.389679 23.537457 360.517883 137 125 119
344.520752 17.788029 377.046265 88 80 76
358.076050 12.556743 368.451874 86 78 73
284.811737 151.487305 263.705627 120 115 114
280.160095 250.467529 312.492310 95 89 87
302.598999 218.807617 297.997131 106 101 102
306.230377 252.735626 316.498871 108 102 100
330.838898 366.666565 225.597488 129 124 125
287.203979 501.557526 120.721642 130 127 128
255.319412 448.295898 142.349243 91 88 89
276.113098 275.408569 322.428619 104 97 93
312.787598 494.698181 269.937714 148 140 139
119.858719 608.987366 81.751328 59 63 69
118.686333 618.773193 90.878944 43 47 52
124.398834 532.626404 202.692596 125 119 120
78.670120 685.714478 116.360985 105 100 99
115.646553 644.221313 189.503342 86 80 79
110.367744 678.668762 145.995651 66 65 66
104.839706 676.972412 158.002014 63 62 63
124.974472 658.296692 245.041000 85 76 71
121.991623 666.395508 231.857269 58 55 55
210.999207 636.192627 100.536278 65 62 61
245.440140 636.068237 112.665810 101 95 92
123.542961 514.773560 205.320190 125 116 112
130.644196 606.045776 175.397995 111 105 104
137.288239 610.508484 245.507935 78 72 69
142.125809 702.694214 90.278725 93 88 86
134.271179 718.074890 98.457809 95 90 88
173.367386 745.605835 73.700470 68 65 66
213.794312 641.248718 84.427063 67 63 63
134.126221 759.026733 228.149643 123 115 113
121.566025 709.898804 280.461517 181 151 139
153.396179 637.529541 264.402039 72 67 64
163.279175 623.373230 269.167572 101 94 90
176.917404 589.763550 334.305237 48 50 53
206.153839 637.685181 289.850098 79 72 67
198.108597 653.431519 308.034790 54 55 58
252.467743 716.671143 280.545837 87 79 76
72.222816 803.235107 138.199524 134 126 124
120.073219 825.864441 168.054413 126 115 114
220.669220 775.592590 82.559738 67 60 56
132.158981 791.068970 208.047638 79 74 72
200.078232 888.145691 163.225540 107 84 81
255.257355 862.635620 218.838928 85 75 68
218.281876 948.248413 145.698883 123 114 111
235.347443 908.021057 173.062698 90 77 68
245.114212 907.615601 195.822128 85 75 67
225.614731 979.063477 162.449677 146 137 134
248.098572 1009.876038 238.979233 210 192 182
223.039047 860.255127 267.051636 80 79 84
223.860107 912.093811 263.718781 151 133 125
256.210571 924.457764 255.010483 50 48 49
242.558456 936.279663 289.367493 106 102 101
261.356415 624.340027 115.486740 54 53 54
283.589172 622.170654 95.680115 53 52 54
303.196228 581.439514 157.375015 89 87 88
328.999115 679.992920 198.338501 132 123 121
280.145142 668.164490 258.672882 77 69 64
284.402893 687.262817 298.538971 93 88 87
306.087372 735.797974 307.427856 106 100 99
338.699005 703.832153 354.086487 101 97 98
371.718292 765.350464 304.578064 105 97 93
254.318726 810.107544 243.349045 83 78 76
285.301178 832.304810 250.876007 55 48 43
261.915100 900.248657 214.857803 75 65 56
258.938690 979.866516 178.179672 147 129 117
277.599701 964.260498 238.704620 151 136 126
162.594498 14.947469 114.935631 77 74 74
164.809662 113.887802 99.267639 108 104 105
224.643768 59.935963 118.924881 84 80 79
146.320923 17.197376 131.028748 67 65 65
164.084045 47.381538 154.143478 122 110 101
198.264404 233.143326 75.857117 130 126 129
208.409851 215.826416 173.214752 96 93 94
119.342216 426.780060 118.435081 84 79 76
152.492188 295.780609 122.690964 97 94 95
225.043198 287.574707 117.433159 117 111 109
163.279373 330.098663 194.776413 77 68 61
213.680740 275.543396 148.510300 101 96 94
194.394363 353.183197 188.857941 56 50 45
235.159439 410.570465 124.552139 113 106 103
