ply
format ascii 1.0
element vertex 1084
property float x
property float y
property float z
property uchar red
property uchar green
property uchar blue
end_header
141.000000 331.000000 186.000000 89 78 68
146.000000 324.000000 180.000000 71 64 58
156.000000 323.000000 182.000000 82 80 81
134.000000 362.000000 137.000000 98 95 94
129.000000 369.000000 129.000000 111 105 104
131.000000 376.000000 137.000000 107 104 105
136.000000 347.000000 196.000000 110 104 103
141.000000 348.000000 200.000000 114 108 106
147.000000 346.000000 202.000000 93 83 75
151.000000 345.000000 203.000000 93 81 71
152.000000 342.000000 202.000000 82 71 63
158.000000 343.000000 205.000000 91 79 69
153.000000 350.000000 205.000000 126 120 119
159.000000 351.000000 207.000000 130 125 125
131.000000 366.000000 199.000000 99 92 89
133.000000 363.000000 200.000000 98 90 85
143.000000 366.000000 207.000000 138 130 130
131.000000 377.000000 202.000000 146 139 139
136.000000 375.000000 204.000000 149 139 136
138.000000 381.000000 204.000000 149 143 143
152.000000 372.000000 208.000000 155 148 150
164.000000 330.000000 194.000000 74 66 60
170.000000 328.000000 193.000000 73 66 60
174.000000 329.000000 195.000000 73 65 60
163.000000 338.000000 203.000000 85 74 65
169.000000 342.000000 206.000000 86 75 66
175.000000 340.000000 204.000000 80 70 61
191.000000 327.000000 194.000000 55 49 43
186.000000 333.000000 199.000000 71 61 53
190.000000 339.000000 196.000000 58 52 48
184.000000 340.000000 201.000000 70 62 54
175.000000 355.000000 207.000000 102 97 97
160.000000 363.000000 209.000000 138 132 133
163.000000 383.000000 209.000000 133 128 129
179.000000 353.000000 205.000000 75 71 69
186.000000 354.000000 198.000000 65 63 63
185.000000 370.000000 196.000000 96 90 89
222.000000 257.000000 154.000000 103 98 97
222.000000 272.000000 135.000000 74 67 62
222.000000 277.000000 133.000000 55 49 47
222.000000 287.000000 138.000000 78 72 68
219.000000 272.000000 148.000000 72 64 58
218.000000 277.000000 146.000000 60 54 51
218.000000 279.000000 150.000000 99 91 88
218.000000 274.000000 155.000000 75 68 63
203.000000 263.000000 189.000000 77 72 71
217.000000 269.000000 163.000000 88 83 81
211.000000 256.000000 184.000000 100 95 95
217.000000 260.000000 179.000000 71 64 60
217.000000 265.000000 177.000000 84 77 73
216.000000 276.000000 160.000000 70 62 56
211.000000 276.000000 181.000000 71 65 61
209.000000 272.000000 186.000000 89 85 83
220.000000 294.000000 148.000000 87 84 84
222.000000 297.000000 147.000000 86 84 84
215.000000 313.000000 157.000000 77 73 72
223.000000 313.000000 148.000000 99 93 91
205.000000 303.000000 185.000000 82 77 76
214.000000 288.000000 161.000000 74 70 69
215.000000 302.000000 160.000000 94 89 88
212.000000 303.000000 176.000000 70 60 52
212.000000 312.000000 165.000000 105 100 98
224.000000 261.000000 131.000000 83 76 72
224.000000 274.000000 129.000000 102 98 99
226.000000 291.000000 135.000000 75 69 65
224.000000 293.000000 142.000000 93 91 91
227.000000 302.000000 133.000000 116 111 110
226.000000 302.000000 146.000000 95 92 92
227.000000 305.000000 141.000000 97 93 93
227.000000 312.000000 131.000000 88 79 74
224.000000 308.000000 147.000000 76 71 69
227.000000 309.000000 144.000000 92 87 85
227.000000 314.000000 146.000000 77 72 69
196.000000 259.000000 194.000000 77 71 68
198.000000 274.000000 192.000000 73 69 68
193.000000 284.000000 194.000000 77 70 66
192.000000 291.000000 193.000000 102 97 96
255.000000 280.000000 255.000000 102 98 98
251.000000 300.000000 252.000000 91 88 89
254.000000 308.000000 238.000000 83 81 81
254.000000 314.000000 236.000000 88 85 86
240.000000 317.000000 253.000000 107 103 104
199.000000 333.000000 184.000000 81 73 67
200.000000 328.000000 181.000000 64 58 53
200.000000 346.000000 189.000000 59 52 47
208.000000 328.000000 171.000000 109 106 107
219.000000 330.000000 165.000000 86 84 84
217.000000 342.000000 175.000000 91 89 91
218.000000 341.000000 172.000000 93 91 92
218.000000 356.000000 179.000000 56 52 50
214.000000 374.000000 185.000000 66 62 60
221.000000 368.000000 180.000000 86 84 85
229.000000 329.000000 129.000000 99 91 86
228.000000 342.000000 143.000000 98 90 84
229.000000 336.000000 146.000000 107 102 102
226.000000 348.000000 155.000000 104 99 98
227.000000 352.000000 142.000000 76 69 65
231.000000 365.000000 132.000000 109 103 102
233.000000 365.000000 138.000000 108 101 99
225.000000 353.000000 153.000000 69 61 54
232.000000 371.000000 131.000000 109 105 105
233.000000 376.000000 136.000000 97 89 86
234.000000 382.000000 158.000000 98 96 98
225.000000 357.000000 169.000000 84 81 82
226.000000 361.000000 164.000000 73 70 70
228.000000 366.000000 162.000000 90 86 86
224.000000 362.000000 172.000000 84 81 81
252.000000 382.000000 191.000000 86 81 80
192.000000 377.000000 197.000000 103 98 98
223.000000 362.000000 253.000000 95 93 93
219.000000 374.000000 252.000000 95 92 92
220.000000 368.000000 253.000000 91 89 90
255.000000 333.000000 216.000000 80 78 79
247.000000 347.000000 221.000000 86 84 86
239.000000 324.000000 251.000000 85 81 81
238.000000 347.000000 235.000000 102 100 101
247.000000 326.000000 237.000000 86 80 77
245.000000 334.000000 234.000000 80 77 78
253.000000 322.000000 231.000000 67 64 63
249.000000 324.000000 235.000000 70 66 63
249.000000 332.000000 228.000000 76 73 73
248.000000 330.000000 232.000000 69 66 67
245.000000 322.000000 242.000000 84 76 72
236.000000 376.000000 216.000000 87 84 84
241.000000 361.000000 220.000000 81 79 80
244.000000 371.000000 207.000000 65 62 61
237.000000 360.000000 226.000000 85 83 84
226.000000 363.000000 247.000000 103 98 98
228.000000 363.000000 241.000000 88 84 84
229.000000 369.000000 234.000000 84 81 81
225.000000 379.000000 232.000000 79 76 75
159.000000 402.000000 85.000000 125 121 122
155.000000 407.000000 91.000000 114 111 112
158.000000 406.000000 88.000000 127 122 123
128.000000 405.000000 101.000000 129 127 130
129.000000 411.000000 102.000000 85 79 76
142.000000 446.000000 95.000000 121 116 116
155.000000 422.000000 93.000000 112 108 109
148.000000 444.000000 94.000000 101 97 98
129.000000 428.000000 107.000000 93 90 91
136.000000 446.000000 97.000000 115 111 111
140.000000 442.000000 97.000000 109 104 104
145.000000 423.000000 96.000000 111 108 109
172.000000 386.000000 85.000000 100 97 97
173.000000 392.000000 82.000000 129 125 126
165.000000 405.000000 79.000000 119 116 118
170.000000 410.000000 77.000000 124 121 123
184.000000 397.000000 78.000000 123 120 121
178.000000 390.000000 84.000000 122 118 118
189.000000 389.000000 82.000000 109 104 103
184.000000 404.000000 76.000000 118 113 114
164.000000 440.000000 85.000000 104 100 101
182.000000 425.000000 81.000000 94 88 85
178.000000 433.000000 89.000000 59 58 61
178.000000 444.000000 81.000000 114 111 113
183.000000 443.000000 82.000000 73 70 70
150.000000 457.000000 91.000000 121 118 120
148.000000 459.000000 93.000000 126 121 122
151.000000 463.000000 92.000000 122 119 121
158.000000 448.000000 91.000000 104 100 101
155.000000 459.000000 90.000000 124 121 123
147.000000 477.000000 95.000000 112 108 109
150.000000 474.000000 93.000000 109 106 107
158.000000 466.000000 89.000000 122 119 120
154.000000 472.000000 91.000000 107 104 106
134.000000 453.000000 98.000000 114 110 110
132.000000 459.000000 101.000000 103 97 95
142.000000 507.000000 78.000000 107 97 91
142.000000 507.000000 84.000000 101 92 87
153.000000 510.000000 65.000000 98 90 86
142.000000 480.000000 98.000000 90 86 86
132.000000 503.000000 115.000000 98 96 98
164.000000 452.000000 88.000000 120 115 116
166.000000 456.000000 86.000000 117 113 114
171.000000 452.000000 87.000000 115 111 111
171.000000 458.000000 85.000000 127 123 124
164.000000 470.000000 89.000000 119 116 117
170.000000 477.000000 88.000000 112 108 109
174.000000 477.000000 88.000000 112 107 107
189.000000 463.000000 83.000000 99 96 98
182.000000 467.000000 85.000000 84 83 85
170.000000 494.000000 72.000000 110 102 98
168.000000 494.000000 76.000000 108 101 97
174.000000 493.000000 73.000000 113 105 100
172.000000 492.000000 78.000000 108 101 97
167.000000 486.000000 91.000000 73 72 75
165.000000 493.000000 82.000000 98 93 91
169.000000 490.000000 86.000000 102 98 99
172.000000 488.000000 89.000000 71 70 72
179.000000 494.000000 70.000000 115 107 103
191.000000 498.000000 71.000000 111 104 101
194.000000 391.000000 81.000000 120 115 114
195.000000 399.000000 82.000000 121 115 114
204.000000 398.000000 93.000000 75 71 71
198.000000 414.000000 78.000000 119 117 120
204.000000 413.000000 78.000000 126 124 126
206.000000 406.000000 80.000000 121 117 117
215.000000 386.000000 91.000000 125 119 117
210.000000 394.000000 86.000000 108 101 98
208.000000 392.000000 92.000000 65 62 62
212.000000 399.000000 103.000000 103 97 96
217.000000 388.000000 99.000000 114 109 109
220.000000 386.000000 110.000000 115 109 108
220.000000 390.000000 105.000000 116 111 111
214.000000 410.000000 102.000000 116 112 113
196.000000 431.000000 79.000000 77 72 70
202.000000 422.000000 93.000000 94 89 88
205.000000 420.000000 94.000000 116 111 110
199.000000 436.000000 89.000000 66 61 60
199.000000 440.000000 94.000000 102 96 94
198.000000 447.000000 92.000000 77 74 73
210.000000 444.000000 106.000000 81 77 75
225.000000 385.000000 126.000000 116 111 111
224.000000 390.000000 127.000000 101 95 94
227.000000 403.000000 120.000000 108 104 103
234.000000 408.000000 126.000000 99 94 93
235.000000 414.000000 125.000000 101 98 98
228.000000 434.000000 110.000000 123 119 120
234.000000 445.000000 118.000000 96 91 91
241.000000 443.000000 122.000000 78 74 72
195.000000 453.000000 82.000000 111 108 110
199.000000 452.000000 90.000000 94 90 90
200.000000 457.000000 91.000000 84 82 83
196.000000 464.000000 85.000000 107 104 105
201.000000 450.000000 97.000000 115 110 111
207.000000 463.000000 100.000000 95 90 88
204.000000 468.000000 96.000000 69 65 63
223.000000 466.000000 105.000000 112 108 108
193.000000 481.000000 87.000000 119 114 115
197.000000 485.000000 84.000000 123 118 118
204.000000 484.000000 84.000000 124 119 119
206.000000 497.000000 78.000000 118 114 115
214.000000 483.000000 85.000000 106 100 98
216.000000 487.000000 85.000000 96 90 86
219.000000 494.000000 85.000000 114 107 105
212.000000 502.000000 78.000000 104 100 100
209.000000 509.000000 70.000000 48 46 47
215.000000 508.000000 79.000000 102 96 95
221.000000 498.000000 85.000000 106 100 97
226.000000 477.000000 92.000000 110 103 101
238.000000 473.000000 100.000000 122 119 121
241.000000 455.000000 119.000000 119 117 118
245.000000 455.000000 121.000000 116 113 113
254.000000 474.000000 124.000000 119 115 115
234.000000 480.000000 95.000000 136 131 133
237.000000 487.000000 95.000000 139 136 138
233.000000 495.000000 91.000000 134 130 132
225.000000 502.000000 85.000000 121 117 118
230.000000 501.000000 89.000000 124 120 121
244.000000 499.000000 95.000000 140 136 138
250.000000 483.000000 109.000000 107 101 99
249.000000 495.000000 99.000000 131 127 128
250.000000 494.000000 102.000000 133 129 129
254.000000 484.000000 115.000000 115 111 112
250.000000 502.000000 98.000000 134 129 130
143.000000 386.000000 206.000000 148 142 142
138.000000 401.000000 206.000000 118 110 108
134.000000 412.000000 208.000000 117 110 108
147.000000 384.000000 206.000000 134 127 127
144.000000 390.000000 207.000000 126 120 121
149.000000 413.000000 211.000000 116 111 111
130.000000 447.000000 201.000000 137 131 132
134.000000 445.000000 204.000000 137 132 134
151.000000 446.000000 211.000000 146 139 139
158.000000 439.000000 212.000000 133 127 128
172.000000 390.000000 203.000000 88 83 82
162.000000 405.000000 207.000000 126 120 119
178.000000 390.000000 201.000000 69 64 61
188.000000 394.000000 203.000000 89 82 79
178.000000 401.000000 202.000000 108 103 103
187.000000 406.000000 205.000000 92 88 87
190.000000 400.000000 205.000000 94 89 88
189.000000 410.000000 205.000000 104 99 99
163.000000 419.000000 206.000000 129 124 125
174.000000 418.000000 209.000000 104 99 99
172.000000 425.000000 209.000000 90 82 77
162.000000 437.000000 212.000000 112 105 103
184.000000 417.000000 206.000000 103 98 97
191.000000 418.000000 207.000000 88 83 83
184.000000 435.000000 212.000000 82 79 79
133.000000 452.000000 204.000000 135 130 131
146.000000 448.000000 210.000000 139 135 138
147.000000 459.000000 210.000000 147 142 144
157.000000 459.000000 211.000000 114 107 106
151.000000 472.000000 211.000000 101 92 87
154.000000 465.000000 213.000000 94 86 83
159.000000 466.000000 218.000000 87 77 70
152.000000 476.000000 216.000000 86 80 79
132.000000 499.000000 203.000000 133 127 127
133.000000 503.000000 208.000000 102 96 94
139.000000 507.000000 213.000000 160 154 156
141.000000 510.000000 212.000000 136 130 130
148.000000 482.000000 218.000000 107 102 101
150.000000 484.000000 221.000000 138 132 132
145.000000 507.000000 215.000000 134 127 127
155.000000 498.000000 220.000000 125 118 117
173.000000 453.000000 219.000000 102 97 96
162.000000 465.000000 219.000000 102 92 86
168.000000 466.000000 221.000000 99 94 93
180.000000 450.000000 218.000000 84 78 75
177.000000 459.000000 218.000000 94 90 89
183.000000 456.000000 217.000000 84 78 76
185.000000 452.000000 219.000000 78 71 67
188.000000 449.000000 220.000000 102 98 99
191.000000 450.000000 234.000000 85 82 82
191.000000 453.000000 242.000000 119 116 117
189.000000 460.000000 243.000000 134 128 128
183.000000 473.000000 236.000000 120 116 117
189.000000 479.000000 243.000000 121 112 109
167.000000 490.000000 228.000000 143 134 132
165.000000 494.000000 227.000000 152 145 146
172.000000 482.000000 230.000000 119 114 114
160.000000 497.000000 224.000000 130 124 124
161.000000 511.000000 228.000000 121 115 115
185.000000 506.000000 244.000000 137 132 134
217.000000 394.000000 190.000000 78 76 76
230.000000 390.000000 147.000000 88 84 83
232.000000 399.000000 153.000000 77 74 74
228.000000 400.000000 133.000000 102 96 94
229.000000 404.000000 141.000000 96 92 91
234.000000 401.000000 157.000000 56 54 55
238.000000 415.000000 151.000000 79 74 72
238.000000 413.000000 156.000000 78 75 74
230.000000 385.000000 168.000000 94 90 91
232.000000 392.000000 162.000000 66 63 63
232.000000 392.000000 166.000000 78 75 77
232.000000 396.000000 167.000000 68 65 65
232.000000 396.000000 171.000000 81 80 83
230.000000 396.000000 177.000000 85 85 88
235.000000 402.000000 167.000000 62 59 59
236.000000 405.000000 161.000000 55 53 53
228.000000 407.000000 191.000000 93 92 95
255.000000 391.000000 184.000000 93 91 92
254.000000 398.000000 178.000000 100 96 97
246.000000 403.000000 180.000000 70 70 71
248.000000 406.000000 178.000000 69 68 69
238.000000 421.000000 135.000000 113 108 107
239.000000 420.000000 145.000000 85 82 82
242.000000 425.000000 146.000000 58 55 54
243.000000 430.000000 148.000000 52 49 47
242.000000 438.000000 131.000000 70 67 67
245.000000 444.000000 132.000000 105 101 101
246.000000 436.000000 149.000000 82 79 80
252.000000 441.000000 147.000000 86 84 84
249.000000 417.000000 170.000000 69 68 70
249.000000 426.000000 167.000000 62 61 62
200.000000 389.000000 199.000000 87 85 85
194.000000 413.000000 205.000000 92 89 90
206.000000 402.000000 199.000000 68 65 64
200.000000 412.000000 201.000000 70 67 66
210.000000 399.000000 197.000000 82 80 80
219.000000 400.000000 192.000000 92 91 93
206.000000 407.000000 252.000000 121 116 117
205.000000 413.000000 254.000000 135 130 131
220.000000 396.000000 229.000000 86 83 84
209.000000 399.000000 242.000000 100 95 93
217.000000 402.000000 228.000000 87 84 85
208.000000 400.000000 247.000000 109 105 106
195.000000 422.000000 205.000000 75 71 70
198.000000 419.000000 203.000000 62 58 56
194.000000 446.000000 218.000000 67 65 67
207.000000 439.000000 215.000000 54 52 53
204.000000 435.000000 219.000000 59 55 54
205.000000 445.000000 214.000000 49 48 49
200.000000 447.000000 216.000000 59 56 54
204.000000 441.000000 219.000000 56 55 56
210.000000 425.000000 203.000000 94 92 95
214.000000 427.000000 201.000000 79 79 83
216.000000 420.000000 197.000000 91 90 94
222.000000 420.000000 195.000000 64 60 59
209.000000 426.000000 219.000000 75 72 72
207.000000 418.000000 234.000000 73 69 68
201.000000 429.000000 233.000000 79 76 75
204.000000 425.000000 233.000000 81 79 80
200.000000 425.000000 245.000000 105 100 100
194.000000 445.000000 232.000000 87 85 85
210.000000 422.000000 224.000000 79 76 75
227.000000 392.000000 214.000000 89 86 86
228.000000 405.000000 195.000000 82 80 82
246.000000 385.000000 193.000000 86 84 86
244.000000 385.000000 199.000000 85 84 87
244.000000 390.000000 193.000000 90 89 93
242.000000 387.000000 203.000000 80 80 83
242.000000 392.000000 197.000000 73 74 76
225.000000 416.000000 200.000000 77 75 77
247.000000 450.000000 132.000000 100 97 98
250.000000 461.000000 128.000000 101 95 94
197.000000 456.000000 250.000000 139 134 136
202.000000 455.000000 255.000000 142 137 139
192.000000 465.000000 246.000000 131 125 125
195.000000 471.000000 248.000000 123 118 118
205.000000 478.000000 255.000000 118 107 101
196.000000 495.000000 251.000000 152 147 150
205.000000 501.000000 253.000000 143 137 137
252.000000 262.000000 281.000000 95 90 88
251.000000 267.000000 279.000000 113 108 108
252.000000 264.000000 274.000000 91 83 78
253.000000 265.000000 285.000000 111 105 104
252.000000 279.000000 263.000000 77 68 60
250.000000 278.000000 270.000000 76 68 61
250.000000 274.000000 277.000000 111 104 102
249.000000 284.000000 279.000000 105 101 100
249.000000 280.000000 281.000000 122 117 117
251.000000 282.000000 285.000000 93 85 81
254.000000 287.000000 290.000000 102 94 90
239.000000 318.000000 261.000000 79 70 63
239.000000 316.000000 269.000000 94 80 68
245.000000 298.000000 271.000000 84 74 65
252.000000 290.000000 258.000000 88 82 79
246.000000 293.000000 275.000000 85 74 64
251.000000 298.000000 287.000000 95 87 83
243.000000 305.000000 269.000000 84 73 64
241.000000 312.000000 271.000000 94 80 69
244.000000 310.000000 278.000000 89 77 65
242.000000 315.000000 276.000000 85 74 65
242.000000 317.000000 280.000000 86 75 66
255.000000 297.000000 293.000000 109 102 101
251.000000 304.000000 288.000000 92 85 81
249.000000 310.000000 288.000000 120 113 111
252.000000 307.000000 290.000000 121 116 115
219.000000 365.000000 258.000000 102 98 98
219.000000 366.000000 262.000000 117 111 109
217.000000 377.000000 263.000000 129 122 121
221.000000 377.000000 270.000000 132 127 128
238.000000 320.000000 256.000000 114 109 109
237.000000 324.000000 261.000000 88 76 67
238.000000 323.000000 269.000000 89 77 67
227.000000 349.000000 257.000000 101 98 99
228.000000 346.000000 258.000000 98 95 97
226.000000 349.000000 269.000000 132 125 123
230.000000 349.000000 284.000000 127 121 121
235.000000 338.000000 282.000000 83 72 63
237.000000 347.000000 289.000000 81 72 65
252.000000 335.000000 294.000000 95 81 68
245.000000 349.000000 296.000000 111 95 81
248.000000 350.000000 299.000000 106 90 76
225.000000 356.000000 256.000000 101 99 100
230.000000 355.000000 284.000000 129 122 122
224.000000 363.000000 274.000000 127 120 118
224.000000 374.000000 276.000000 107 100 97
231.000000 374.000000 283.000000 131 123 122
234.000000 368.000000 286.000000 137 132 133
237.000000 353.000000 292.000000 133 127 128
241.000000 358.000000 293.000000 136 130 130
245.000000 355.000000 295.000000 132 125 125
248.000000 367.000000 297.000000 136 129 129
241.000000 369.000000 290.000000 134 127 127
243.000000 382.000000 291.000000 122 114 112
218.000000 390.000000 269.000000 135 130 131
221.000000 387.000000 274.000000 139 134 135
223.000000 399.000000 275.000000 103 93 87
209.000000 415.000000 258.000000 125 119 120
207.000000 419.000000 257.000000 139 134 135
215.000000 421.000000 265.000000 141 136 138
221.000000 446.000000 269.000000 127 121 121
230.000000 391.000000 279.000000 134 127 125
235.000000 384.000000 285.000000 133 126 126
234.000000 388.000000 283.000000 154 147 148
227.000000 410.000000 276.000000 97 85 76
225.000000 412.000000 274.000000 107 95 88
230.000000 411.000000 277.000000 94 82 75
237.000000 407.000000 284.000000 134 128 129
240.000000 388.000000 287.000000 130 121 119
253.000000 386.000000 299.000000 137 130 130
254.000000 392.000000 298.000000 154 149 151
251.000000 414.000000 297.000000 119 114 116
252.000000 411.000000 296.000000 153 148 151
234.000000 418.000000 285.000000 100 95 95
231.000000 447.000000 274.000000 144 137 136
233.000000 436.000000 279.000000 143 134 132
243.000000 436.000000 283.000000 154 146 146
244.000000 439.000000 282.000000 148 141 142
240.000000 441.000000 280.000000 132 123 121
252.000000 425.000000 296.000000 149 144 146
205.000000 468.000000 256.000000 140 136 138
217.000000 454.000000 266.000000 143 136 136
220.000000 451.000000 268.000000 148 141 142
219.000000 463.000000 266.000000 154 149 151
221.000000 459.000000 268.000000 141 135 136
212.000000 464.000000 262.000000 158 152 155
215.000000 476.000000 262.000000 107 94 86
220.000000 478.000000 264.000000 136 126 122
219.000000 482.000000 262.000000 138 128 124
225.000000 448.000000 271.000000 139 133 133
227.000000 452.000000 271.000000 162 155 156
231.000000 457.000000 272.000000 163 157 160
239.000000 459.000000 274.000000 151 144 146
227.000000 477.000000 267.000000 113 101 93
231.000000 472.000000 269.000000 133 122 118
234.000000 476.000000 269.000000 125 113 106
241.000000 457.000000 276.000000 144 138 140
246.000000 461.000000 277.000000 147 140 140
252.000000 471.000000 277.000000 159 152 153
255.000000 468.000000 279.000000 151 146 149
225.000000 481.000000 265.000000 130 119 115
229.000000 483.000000 265.000000 131 120 117
234.000000 482.000000 267.000000 113 100 91
227.000000 497.000000 262.000000 136 128 126
225.000000 507.000000 258.000000 155 151 154
225.000000 510.000000 256.000000 157 152 156
244.000000 487.000000 269.000000 161 154 155
244.000000 495.000000 268.000000 157 151 154
240.000000 497.000000 266.000000 130 120 118
242.000000 506.000000 263.000000 147 141 143
253.000000 510.000000 265.000000 154 148 150
245.000000 476.000000 421.000000 45 49 55
248.000000 474.000000 422.000000 47 50 54
249.000000 476.000000 430.000000 145 146 154
254.000000 469.000000 433.000000 114 120 130
239.000000 499.000000 413.000000 80 82 87
235.000000 511.000000 406.000000 78 80 85
246.000000 495.000000 410.000000 86 87 91
247.000000 503.000000 409.000000 103 103 108
243.000000 482.000000 423.000000 60 63 68
247.000000 481.000000 428.000000 158 156 162
253.000000 482.000000 419.000000 115 116 123
241.000000 499.000000 416.000000 118 119 125
319.000000 60.000000 248.000000 101 98 99
319.000000 83.000000 221.000000 88 84 83
318.000000 74.000000 231.000000 100 96 97
316.000000 74.000000 237.000000 85 82 82
315.000000 69.000000 245.000000 89 86 86
317.000000 64.000000 244.000000 99 95 95
316.000000 70.000000 241.000000 93 90 91
313.000000 79.000000 241.000000 76 71 70
316.000000 85.000000 234.000000 96 92 93
318.000000 93.000000 224.000000 80 77 77
309.000000 82.000000 248.000000 106 100 99
311.000000 91.000000 245.000000 89 86 86
298.000000 122.000000 237.000000 70 64 61
315.000000 98.000000 230.000000 67 63 63
313.000000 103.000000 224.000000 78 75 74
315.000000 96.000000 234.000000 65 61 59
313.000000 98.000000 236.000000 70 68 68
311.000000 102.000000 246.000000 87 83 83
305.000000 113.000000 232.000000 67 62 60
305.000000 125.000000 233.000000 79 74 72
316.000000 119.000000 226.000000 88 84 83
330.000000 19.000000 222.000000 96 88 83
344.000000 15.000000 205.000000 44 43 45
337.000000 12.000000 214.000000 66 62 61
348.000000 10.000000 214.000000 42 41 43
350.000000 13.000000 209.000000 38 38 41
342.000000 29.000000 202.000000 100 92 89
346.000000 19.000000 202.000000 48 45 44
328.000000 17.000000 226.000000 109 100 96
329.000000 29.000000 225.000000 90 83 79
331.000000 22.000000 240.000000 96 86 79
333.000000 17.000000 246.000000 109 99 93
350.000000 8.000000 249.000000 73 68 66
335.000000 35.000000 211.000000 92 86 84
330.000000 53.000000 215.000000 69 65 63
330.000000 48.000000 217.000000 66 63 63
329.000000 63.000000 210.000000 85 82 83
344.000000 41.000000 204.000000 92 85 83
336.000000 40.000000 210.000000 92 87 86
342.000000 51.000000 205.000000 66 62 61
339.000000 61.000000 205.000000 79 74 71
348.000000 55.000000 204.000000 80 76 75
326.000000 44.000000 233.000000 99 94 92
327.000000 39.000000 247.000000 102 96 93
326.000000 42.000000 243.000000 101 95 92
326.000000 42.000000 249.000000 108 101 98
320.000000 63.000000 237.000000 98 95 95
321.000000 55.000000 243.000000 95 92 93
321.000000 53.000000 253.000000 99 95 95
357.000000 14.000000 209.000000 39 39 41
354.000000 10.000000 218.000000 41 41 42
358.000000 9.000000 223.000000 46 45 46
365.000000 11.000000 222.000000 60 57 57
353.000000 29.000000 200.000000 98 89 85
358.000000 25.000000 200.000000 80 72 68
363.000000 29.000000 201.000000 102 94 90
371.000000 13.000000 220.000000 83 77 75
374.000000 22.000000 208.000000 81 75 73
378.000000 26.000000 223.000000 125 113 106
359.000000 10.000000 233.000000 89 83 81
361.000000 10.000000 251.000000 104 97 94
378.000000 13.000000 248.000000 125 117 114
378.000000 13.000000 254.000000 125 117 113
380.000000 21.000000 238.000000 128 117 112
379.000000 25.000000 229.000000 127 116 110
376.000000 30.000000 227.000000 107 97 90
380.000000 18.000000 253.000000 126 117 113
379.000000 27.000000 241.000000 113 103 97
354.000000 39.000000 203.000000 95 88 84
366.000000 32.000000 206.000000 94 86 82
356.000000 48.000000 206.000000 88 83 82
370.000000 62.000000 220.000000 97 90 87
375.000000 38.000000 231.000000 127 116 110
374.000000 47.000000 228.000000 105 98 95
375.000000 35.000000 241.000000 124 114 109
376.000000 51.000000 230.000000 97 91 88
378.000000 58.000000 239.000000 93 88 86
380.000000 62.000000 237.000000 104 97 94
375.000000 50.000000 253.000000 122 113 109
332.000000 69.000000 207.000000 73 68 66
330.000000 73.000000 207.000000 86 82 81
327.000000 69.000000 211.000000 76 73 74
322.000000 71.000000 221.000000 89 86 87
320.000000 74.000000 223.000000 87 85 86
330.000000 67.000000 209.000000 79 76 76
321.000000 83.000000 218.000000 86 83 83
321.000000 92.000000 214.000000 83 80 79
320.000000 89.000000 218.000000 79 75 75
328.000000 89.000000 208.000000 90 86 86
338.000000 78.000000 205.000000 73 69 67
349.000000 66.000000 204.000000 91 85 82
349.000000 72.000000 204.000000 97 90 87
340.000000 81.000000 205.000000 96 93 93
340.000000 85.000000 206.000000 93 91 92
338.000000 94.000000 206.000000 81 78 78
327.000000 96.000000 210.000000 71 67 66
325.000000 101.000000 210.000000 85 81 81
340.000000 110.000000 211.000000 84 80 80
349.000000 125.000000 206.000000 78 75 74
339.000000 122.000000 216.000000 71 68 67
355.000000 88.000000 208.000000 98 95 97
363.000000 87.000000 214.000000 84 81 81
362.000000 94.000000 214.000000 82 80 81
369.000000 65.000000 218.000000 98 91 87
374.000000 64.000000 223.000000 91 86 84
368.000000 83.000000 216.000000 95 90 89
373.000000 90.000000 218.000000 78 74 73
376.000000 95.000000 220.000000 130 122 121
379.000000 92.000000 221.000000 107 101 100
383.000000 74.000000 228.000000 96 91 89
381.000000 66.000000 242.000000 116 111 110
379.000000 64.000000 251.000000 104 98 95
380.000000 66.000000 248.000000 105 99 98
382.000000 79.000000 250.000000 105 99 98
381.000000 95.000000 230.000000 122 117 118
381.000000 93.000000 244.000000 126 117 114
355.000000 102.000000 206.000000 88 85 85
366.000000 103.000000 209.000000 96 93 93
365.000000 119.000000 221.000000 108 103 102
374.000000 97.000000 216.000000 105 100 99
372.000000 101.000000 223.000000 142 133 131
372.000000 101.000000 232.000000 142 134 132
370.000000 107.000000 234.000000 106 94 87
378.000000 97.000000 226.000000 122 117 117
381.000000 97.000000 234.000000 149 142 142
371.000000 110.000000 240.000000 111 105 104
378.000000 99.000000 241.000000 132 126 125
376.000000 104.000000 245.000000 137 130 129
278.000000 143.000000 251.000000 123 118 119
283.000000 133.000000 253.000000 101 95 92
287.000000 143.000000 240.000000 94 90 90
280.000000 136.000000 251.000000 117 110 108
276.000000 145.000000 245.000000 91 85 83
272.000000 157.000000 244.000000 83 75 69
277.000000 156.000000 240.000000 84 80 79
277.000000 154.000000 249.000000 84 79 77
281.000000 152.000000 254.000000 79 74 73
270.000000 168.000000 247.000000 110 104 102
270.000000 172.000000 245.000000 117 113 114
263.000000 186.000000 246.000000 117 112 112
265.000000 177.000000 255.000000 99 95 95
287.000000 175.000000 235.000000 76 74 75
286.000000 174.000000 238.000000 68 66 67
272.000000 161.000000 243.000000 110 105 105
283.000000 169.000000 240.000000 99 94 94
280.000000 172.000000 240.000000 95 91 91
284.000000 183.000000 236.000000 85 82 82
318.000000 135.000000 223.000000 84 81 82
301.000000 133.000000 236.000000 87 84 83
289.000000 145.000000 238.000000 72 67 64
294.000000 147.000000 237.000000 69 64 62
299.000000 146.000000 236.000000 76 74 73
296.000000 159.000000 233.000000 73 71 72
311.000000 132.000000 230.000000 80 78 79
311.000000 174.000000 212.000000 90 86 86
306.000000 177.000000 214.000000 67 62 60
295.000000 163.000000 229.000000 74 71 71
295.000000 167.000000 227.000000 82 80 81
293.000000 169.000000 229.000000 78 76 77
298.000000 161.000000 226.000000 78 76 76
291.000000 178.000000 227.000000 82 78 77
289.000000 180.000000 231.000000 76 73 73
293.000000 176.000000 225.000000 65 60 58
262.000000 198.000000 250.000000 93 85 80
265.000000 210.000000 249.000000 82 75 72
269.000000 209.000000 248.000000 78 73 70
268.000000 222.000000 250.000000 101 97 96
277.000000 192.000000 241.000000 93 88 86
272.000000 204.000000 246.000000 110 105 104
287.000000 214.000000 230.000000 90 87 87
280.000000 216.000000 239.000000 96 93 93
276.000000 214.000000 243.000000 102 98 98
287.000000 229.000000 231.000000 97 94 95
272.000000 226.000000 249.000000 81 77 75
276.000000 233.000000 244.000000 85 81 80
278.000000 254.000000 237.000000 87 85 85
285.000000 255.000000 230.000000 91 88 88
276.000000 247.000000 243.000000 75 73 74
274.000000 253.000000 243.000000 92 90 90
303.000000 202.000000 216.000000 93 90 90
303.000000 211.000000 217.000000 82 77 75
301.000000 215.000000 217.000000 79 75 74
318.000000 195.000000 211.000000 93 89 88
313.000000 205.000000 212.000000 94 90 89
319.000000 201.000000 211.000000 95 91 91
308.000000 211.000000 214.000000 92 88 89
313.000000 222.000000 213.000000 94 89 89
318.000000 218.000000 212.000000 69 63 60
293.000000 194.000000 224.000000 81 77 75
292.000000 209.000000 225.000000 93 88 88
295.000000 236.000000 223.000000 64 59 56
295.000000 240.000000 223.000000 65 59 56
309.000000 235.000000 215.000000 96 92 92
316.000000 237.000000 214.000000 89 82 79
305.000000 245.000000 217.000000 92 87 86
312.000000 247.000000 217.000000 82 75 72
295.000000 255.000000 224.000000 93 90 90
324.000000 143.000000 211.000000 102 98 98
323.000000 147.000000 212.000000 102 97 98
325.000000 150.000000 212.000000 103 98 98
340.000000 131.000000 208.000000 76 74 74
337.000000 149.000000 218.000000 90 83 80
346.000000 144.000000 213.000000 102 97 96
348.000000 146.000000 215.000000 105 99 99
347.000000 147.000000 218.000000 105 99 98
327.000000 169.000000 212.000000 94 90 89
332.000000 174.000000 212.000000 99 96 97
320.000000 189.000000 211.000000 91 86 85
348.000000 174.000000 221.000000 109 105 106
351.000000 185.000000 223.000000 117 113 114
354.000000 143.000000 212.000000 79 72 67
356.000000 138.000000 211.000000 92 85 82
363.000000 142.000000 218.000000 84 75 68
365.000000 158.000000 226.000000 80 73 68
367.000000 145.000000 247.000000 112 107 107
368.000000 135.000000 226.000000 96 88 84
371.000000 129.000000 234.000000 85 77 71
360.000000 173.000000 236.000000 121 117 117
372.000000 169.000000 239.000000 120 113 112
374.000000 168.000000 250.000000 72 68 66
377.000000 169.000000 255.000000 82 79 79
369.000000 177.000000 240.000000 124 120 121
323.000000 192.000000 210.000000 94 90 90
328.000000 197.000000 211.000000 87 81 80
324.000000 221.000000 213.000000 77 70 66
341.000000 202.000000 215.000000 108 104 104
341.000000 216.000000 218.000000 111 106 107
324.000000 227.000000 213.000000 97 92 92
321.000000 236.000000 214.000000 89 83 80
333.000000 239.000000 217.000000 106 101 101
326.000000 252.000000 218.000000 108 102 101
348.000000 242.000000 234.000000 135 130 130
350.000000 240.000000 236.000000 123 117 115
347.000000 251.000000 236.000000 105 99 97
349.000000 245.000000 240.000000 120 114 113
351.000000 242.000000 255.000000 136 130 129
349.000000 249.000000 241.000000 99 91 88
353.000000 211.000000 224.000000 120 117 118
353.000000 218.000000 225.000000 133 127 127
370.000000 198.000000 248.000000 127 120 118
355.000000 229.000000 241.000000 142 136 136
384.000000 80.000000 234.000000 116 109 107
315.000000 71.000000 263.000000 97 94 94
317.000000 64.000000 256.000000 91 87 87
317.000000 69.000000 270.000000 89 83 80
314.000000 73.000000 267.000000 92 87 85
310.000000 82.000000 258.000000 104 99 99
311.000000 89.000000 258.000000 80 73 69
315.000000 86.000000 265.000000 101 95 94
312.000000 94.000000 262.000000 93 87 85
310.000000 107.000000 273.000000 104 99 98
307.000000 116.000000 271.000000 108 103 103
329.000000 31.000000 256.000000 85 79 75
334.000000 22.000000 276.000000 79 74 71
330.000000 31.000000 276.000000 80 73 70
333.000000 27.000000 272.000000 74 69 66
332.000000 28.000000 276.000000 70 65 62
330.000000 24.000000 284.000000 77 73 71
342.000000 9.000000 265.000000 58 55 54
340.000000 11.000000 286.000000 84 77 74
346.000000 10.000000 285.000000 77 71 68
338.000000 16.000000 262.000000 101 93 88
336.000000 22.000000 264.000000 81 75 73
325.000000 15.000000 309.000000 91 83 78
327.000000 25.000000 295.000000 77 70 66
325.000000 30.000000 303.000000 115 106 101
332.000000 17.000000 290.000000 94 87 84
323.000000 27.000000 312.000000 117 109 105
327.000000 33.000000 260.000000 86 80 78
325.000000 36.000000 267.000000 94 86 82
325.000000 47.000000 267.000000 91 83 78
324.000000 37.000000 286.000000 104 96 93
326.000000 44.000000 273.000000 109 98 92
320.000000 56.000000 263.000000 107 102 101
321.000000 57.000000 270.000000 106 98 94
327.000000 50.000000 284.000000 114 104 99
326.000000 55.000000 282.000000 114 106 102
328.000000 47.000000 292.000000 114 103 95
325.000000 33.000000 317.000000 110 100 94
326.000000 38.000000 313.000000 117 106 99
329.000000 39.000000 318.000000 131 119 113
328.000000 53.000000 289.000000 113 104 99
330.000000 48.000000 299.000000 127 115 109
335.000000 50.000000 309.000000 149 136 131
338.000000 63.000000 292.000000 126 113 106
343.000000 62.000000 295.000000 152 137 128
341.000000 52.000000 309.000000 149 135 127
341.000000 48.000000 316.000000 152 137 129
374.000000 12.000000 263.000000 126 117 113
370.000000 10.000000 265.000000 124 115 111
371.000000 11.000000 270.000000 124 115 111
372.000000 12.000000 282.000000 123 115 111
378.000000 18.000000 264.000000 118 108 103
378.000000 22.000000 268.000000 98 89 83
380.000000 18.000000 278.000000 123 115 111
376.000000 12.000000 298.000000 127 119 115
373.000000 12.000000 307.000000 121 113 109
383.000000 18.000000 288.000000 126 117 113
375.000000 42.000000 258.000000 132 121 115
375.000000 47.000000 271.000000 126 114 106
379.000000 38.000000 278.000000 135 123 115
382.000000 33.000000 286.000000 121 110 104
377.000000 41.000000 273.000000 123 111 105
374.000000 55.000000 271.000000 107 97 90
375.000000 63.000000 270.000000 118 112 110
378.000000 60.000000 260.000000 85 79 77
352.000000 47.000000 315.000000 155 139 128
357.000000 61.000000 294.000000 163 146 135
352.000000 53.000000 308.000000 167 150 139
373.000000 47.000000 295.000000 142 128 120
375.000000 43.000000 297.000000 127 116 110
373.000000 45.000000 301.000000 148 133 124
374.000000 43.000000 305.000000 136 121 111
373.000000 41.000000 314.000000 161 145 136
379.000000 37.000000 312.000000 148 134 126
382.000000 34.000000 312.000000 149 134 125
377.000000 40.000000 304.000000 153 140 133
369.000000 52.000000 297.000000 158 144 136
372.000000 49.000000 298.000000 156 143 137
329.000000 9.000000 335.000000 77 69 63
326.000000 10.000000 342.000000 82 74 68
333.000000 9.000000 337.000000 79 70 65
322.000000 23.000000 324.000000 115 106 101
322.000000 26.000000 322.000000 119 110 105
336.000000 9.000000 344.000000 82 74 69
331.000000 12.000000 363.000000 78 70 65
332.000000 13.000000 366.000000 78 70 65
335.000000 12.000000 367.000000 77 70 65
329.000000 31.000000 358.000000 144 132 126
334.000000 19.000000 370.000000 80 71 65
342.000000 10.000000 355.000000 78 71 66
342.000000 14.000000 371.000000 78 70 65
351.000000 20.000000 377.000000 91 82 76
347.000000 26.000000 376.000000 117 106 99
325.000000 35.000000 327.000000 114 104 99
331.000000 38.000000 330.000000 164 151 145
332.000000 44.000000 322.000000 92 82 77
329.000000 33.000000 344.000000 155 143 138
330.000000 33.000000 349.000000 154 143 138
337.000000 40.000000 330.000000 166 151 142
341.000000 40.000000 332.000000 183 168 161
348.000000 37.000000 351.000000 183 170 166
343.000000 37.000000 353.000000 182 169 164
348.000000 34.000000 371.000000 168 155 149
358.000000 11.000000 329.000000 111 102 98
373.000000 11.000000 335.000000 116 106 102
377.000000 12.000000 326.000000 110 100 96
377.000000 13.000000 344.000000 118 108 104
380.000000 15.000000 344.000000 123 114 109
382.000000 18.000000 341.000000 127 118 115
377.000000 17.000000 350.000000 129 119 115
380.000000 18.000000 347.000000 129 121 117
380.000000 30.000000 340.000000 159 144 136
357.000000 18.000000 374.000000 86 77 71
369.000000 17.000000 365.000000 84 77 71
370.000000 24.000000 363.000000 122 109 101
356.000000 37.000000 340.000000 173 158 151
354.000000 37.000000 351.000000 183 171 166
367.000000 35.000000 342.000000 167 152 143
374.000000 35.000000 333.000000 168 152 142
375.000000 32.000000 342.000000 171 157 149
371.000000 33.000000 344.000000 172 158 151
357.000000 36.000000 358.000000 181 168 163
356.000000 34.000000 366.000000 168 153 145
364.000000 34.000000 352.000000 170 157 150
329.000000 74.000000 281.000000 99 87 81
324.000000 91.000000 279.000000 76 71 69
346.000000 93.000000 286.000000 118 110 107
332.000000 71.000000 288.000000 113 107 106
324.000000 99.000000 285.000000 137 132 133
328.000000 101.000000 280.000000 105 94 93
328.000000 109.000000 279.000000 112 105 103
321.000000 113.000000 278.000000 88 82 80
326.000000 115.000000 279.000000 95 89 86
322.000000 124.000000 276.000000 63 58 56
322.000000 126.000000 282.000000 66 60 56
329.000000 118.000000 283.000000 71 64 61
339.000000 102.000000 284.000000 87 76 70
341.000000 105.000000 285.000000 109 103 101
325.000000 126.000000 288.000000 97 92 91
332.000000 124.000000 290.000000 131 125 125
368.000000 68.000000 279.000000 130 123 122
375.000000 95.000000 262.000000 123 117 118
377.000000 93.000000 264.000000 107 98 94
359.000000 107.000000 279.000000 134 128 128
361.000000 98.000000 276.000000 125 117 116
366.000000 125.000000 258.000000 106 99 96
352.000000 124.000000 281.000000 108 103 101
360.000000 124.000000 277.000000 117 110 109
370.000000 100.000000 263.000000 103 94 90
374.000000 112.000000 256.000000 117 109 106
370.000000 119.000000 265.000000 139 132 131
368.000000 118.000000 269.000000 115 110 110
285.000000 158.000000 263.000000 110 102 100
283.000000 161.000000 262.000000 115 109 108
285.000000 164.000000 263.000000 108 102 101
281.000000 168.000000 261.000000 120 114 114
288.000000 151.000000 264.000000 129 123 123
295.000000 144.000000 269.000000 91 82 78
294.000000 152.000000 267.000000 116 111 110
307.000000 139.000000 281.000000 109 104 104
310.000000 139.000000 283.000000 99 94 93
318.000000 131.000000 285.000000 101 97 98
313.000000 158.000000 289.000000 120 112 109
297.000000 174.000000 268.000000 131 124 124
303.000000 164.000000 274.000000 149 142 142
294.000000 188.000000 275.000000 112 108 109
297.000000 190.000000 278.000000 101 98 99
310.000000 174.000000 274.000000 117 110 109
314.000000 174.000000 279.000000 112 104 102
312.000000 168.000000 282.000000 87 76 71
317.000000 179.000000 278.000000 115 108 106
319.000000 183.000000 282.000000 117 110 108
263.000000 193.000000 262.000000 94 86 82
262.000000 196.000000 263.000000 112 106 105
259.000000 200.000000 257.000000 123 117 117
261.000000 209.000000 267.000000 87 79 75
257.000000 216.000000 264.000000 114 107 105
264.000000 222.000000 272.000000 108 103 102
266.000000 220.000000 274.000000 106 104 105
271.000000 217.000000 278.000000 104 100 100
270.000000 223.000000 283.000000 85 79 77
276.000000 197.000000 269.000000 116 111 112
256.000000 230.000000 268.000000 88 76 66
258.000000 235.000000 264.000000 85 74 64
263.000000 235.000000 284.000000 90 85 84
260.000000 243.000000 262.000000 80 71 64
256.000000 244.000000 281.000000 116 109 108
256.000000 247.000000 284.000000 126 121 121
265.000000 233.000000 288.000000 92 87 86
270.000000 239.000000 300.000000 99 93 91
265.000000 247.000000 302.000000 95 89 87
271.000000 254.000000 311.000000 95 89 86
274.000000 231.000000 297.000000 88 83 82
286.000000 228.000000 301.000000 110 108 111
273.000000 240.000000 304.000000 94 88 86
275.000000 247.000000 310.000000 97 92 90
293.000000 203.000000 286.000000 116 114 116
299.000000 201.000000 285.000000 118 115 117
304.000000 193.000000 281.000000 128 125 127
308.000000 198.000000 284.000000 92 87 85
314.000000 192.000000 280.000000 106 103 105
316.000000 196.000000 282.000000 86 79 75
307.000000 219.000000 297.000000 113 109 111
319.000000 211.000000 290.000000 133 130 133
317.000000 215.000000 293.000000 126 124 127
314.000000 220.000000 297.000000 119 116 118
318.000000 222.000000 297.000000 122 119 122
303.000000 227.000000 302.000000 108 104 104
292.000000 233.000000 307.000000 110 105 105
295.000000 238.000000 309.000000 98 94 93
300.000000 239.000000 310.000000 101 96 95
316.000000 236.000000 305.000000 113 109 110
308.000000 246.000000 314.000000 107 101 98
315.000000 244.000000 311.000000 108 102 100
319.000000 253.000000 307.000000 118 113 113
350.000000 149.000000 287.000000 115 110 109
320.000000 148.000000 291.000000 128 122 122
327.000000 153.000000 295.000000 85 81 80
331.000000 149.000000 297.000000 120 112 110
349.000000 154.000000 289.000000 102 95 93
322.000000 185.000000 286.000000 112 104 102
349.000000 190.000000 281.000000 119 114 113
326.000000 171.000000 295.000000 133 126 125
335.000000 162.000000 296.000000 143 138 139
333.000000 188.000000 291.000000 159 154 155
336.000000 166.000000 295.000000 135 124 119
341.000000 161.000000 294.000000 160 155 157
349.000000 160.000000 290.000000 139 134 136
340.000000 189.000000 289.000000 135 131 134
359.000000 139.000000 262.000000 136 130 130
355.000000 133.000000 283.000000 123 118 119
358.000000 144.000000 267.000000 110 106 106
364.000000 151.000000 259.000000 107 103 104
361.000000 155.000000 270.000000 106 100 99
355.000000 149.000000 278.000000 139 131 130
352.000000 145.000000 282.000000 124 114 110
359.000000 158.000000 275.000000 120 111 108
353.000000 159.000000 285.000000 124 119 119
369.000000 156.000000 258.000000 111 107 108
367.000000 162.000000 268.000000 146 140 142
356.000000 165.000000 282.000000 122 116 114
358.000000 172.000000 279.000000 137 124 117
343.000000 215.000000 287.000000 104 99 99
344.000000 210.000000 283.000000 103 96 94
331.000000 219.000000 293.000000 123 118 120
340.000000 200.000000 288.000000 139 132 131
342.000000 233.000000 285.000000 130 123 122
344.000000 234.000000 279.000000 114 103 97
351.000000 240.000000 258.000000 120 113 112
348.000000 253.000000 267.000000 110 102 98
342.000000 253.000000 283.000000 145 137 135
344.000000 253.000000 277.000000 122 110 103
321.000000 230.000000 300.000000 110 106 107
324.000000 226.000000 297.000000 107 102 102
326.000000 232.000000 298.000000 124 118 118
333.000000 248.000000 295.000000 103 88 75
340.000000 233.000000 290.000000 102 90 80
338.000000 250.000000 288.000000 101 87 74
355.000000 205.000000 268.000000 106 101 100
365.000000 192.000000 256.000000 108 96 87
361.000000 192.000000 266.000000 125 117 116
352.000000 199.000000 276.000000 137 130 128
354.000000 222.000000 269.000000 135 127 126
384.000000 29.000000 284.000000 112 103 98
386.000000 25.000000 295.000000 91 84 79
385.000000 30.000000 297.000000 122 112 106
387.000000 28.000000 301.000000 115 105 99
387.000000 21.000000 317.000000 114 105 101
386.000000 29.000000 311.000000 123 110 102
387.000000 25.000000 321.000000 108 100 96
263.000000 271.000000 246.000000 96 94 96
271.000000 281.000000 235.000000 81 77 76
257.000000 275.000000 253.000000 104 101 102
276.000000 283.000000 230.000000 82 80 80
284.000000 291.000000 223.000000 92 89 90
267.000000 297.000000 234.000000 75 73 74
258.000000 302.000000 241.000000 89 88 89
263.000000 317.000000 227.000000 89 86 85
273.000000 296.000000 228.000000 85 82 81
280.000000 288.000000 227.000000 78 75 75
277.000000 308.000000 231.000000 68 62 60
278.000000 313.000000 224.000000 92 89 90
281.000000 310.000000 229.000000 81 78 78
287.000000 309.000000 224.000000 67 64 65
297.000000 266.000000 221.000000 100 96 97
311.000000 269.000000 220.000000 121 116 117
308.000000 275.000000 221.000000 101 95 95
297.000000 291.000000 221.000000 104 100 100
299.000000 315.000000 217.000000 81 76 75
306.000000 311.000000 220.000000 90 87 86
308.000000 306.000000 220.000000 103 99 99
305.000000 317.000000 219.000000 102 99 99
311.000000 314.000000 225.000000 97 93 93
256.000000 380.000000 191.000000 80 76 75
262.000000 380.000000 187.000000 69 68 69
288.000000 353.000000 191.000000 96 91 90
289.000000 362.000000 187.000000 107 103 104
298.000000 355.000000 191.000000 124 120 121
293.000000 375.000000 183.000000 113 110 112
289.000000 379.000000 181.000000 109 107 108
300.000000 378.000000 185.000000 99 98 101
257.000000 327.000000 218.000000 82 79 80
259.000000 330.000000 213.000000 87 87 90
262.000000 351.000000 202.000000 80 80 83
265.000000 338.000000 203.000000 67 62 59
285.000000 334.000000 201.000000 99 96 96
272.000000 325.000000 212.000000 70 66 65
282.000000 327.000000 210.000000 104 101 102
286.000000 320.000000 213.000000 106 102 102
272.000000 339.000000 201.000000 102 98 99
285.000000 338.000000 199.000000 104 101 102
259.000000 357.000000 203.000000 81 80 81
266.000000 352.000000 196.000000 81 79 81
296.000000 331.000000 203.000000 68 65 64
295.000000 339.000000 199.000000 122 118 119
310.000000 328.000000 208.000000 164 162 167
311.000000 333.000000 210.000000 136 133 135
315.000000 323.000000 214.000000 134 130 131
312.000000 331.000000 214.000000 134 129 129
309.000000 347.000000 201.000000 119 116 117
316.000000 344.000000 216.000000 125 120 121
309.000000 354.000000 201.000000 119 115 115
317.000000 374.000000 203.000000 129 120 117
322.000000 261.000000 218.000000 121 114 111
327.000000 257.000000 219.000000 120 111 107
324.000000 263.000000 220.000000 117 108 103
