ply
format ascii 1.0
element vertex 1108
property float x
property float y
property float z
property uchar red
property uchar green
property uchar blue
end_header
64.213028 787.944092 127.955879 100 92 90
133.183685 789.378906 82.585266 101 96 95
230.106262 789.966248 82.258591 90 84 82
257.366333 802.211243 88.806793 96 90 87
248.285477 811.038025 247.476151 83 78 76
179.475891 915.936584 224.380768 106 88 77
253.739227 998.695313 184.105499 162 148 140
233.283829 937.126770 286.665070 95 91 90
211.920410 996.248657 272.137939 193 177 169
251.281921 994.426880 281.124298 126 112 102
264.232819 560.760315 100.667984 110 105 104
300.766479 565.559387 144.947800 118 112 112
304.520081 616.178833 181.353729 107 98 93
309.097687 604.232361 229.642670 41 43 46
317.085907 553.487061 183.826431 59 56 55
361.014130 603.517090 191.990692 115 104 97
317.420197 680.437683 116.222115 98 91 87
324.598480 668.995850 193.753662 120 111 107
328.856842 709.886292 144.162277 95 87 84
322.414551 742.113281 251.849762 92 88 88
273.204224 537.494995 257.632324 141 135 136
292.032013 733.953064 342.991089 109 104 103
348.171478 721.097839 375.329559 157 150 151
351.543304 731.147522 375.806610 133 120 113
319.460052 820.779785 145.585266 70 64 58
319.974274 798.122314 139.726822 94 85 79
262.860748 921.632690 238.113663 111 99 90
299.835938 777.863647 301.515808 73 65 62
151.121445 14.308182 168.167358 98 91 87
151.189209 234.351715 120.392784 93 88 87
204.971420 234.176605 80.648697 117 112 113
205.336258 191.910507 151.597427 91 87 87
233.447052 180.005997 148.212433 87 82 81
237.882446 197.815109 140.911896 98 93 91
147.340591 512.390198 97.973053 102 99 101
229.491013 437.416687 110.667961 105 102 102
162.255783 460.720673 214.820694 89 81 78
360.402283 9.369329 233.593033 104 97 94
370.138184 121.937004 230.138641 117 111 110
368.646057 143.295456 239.944031 96 88 85
339.534821 11.488217 287.692474 82 76 73
334.824921 60.640831 301.277374 122 108 100
278.514099 451.031128 140.648315 121 117 119
320.695923 508.885529 234.680313 151 144 144
121.147690 645.004700 201.978043 92 85 80
219.367157 531.410950 251.958084 136 132 135
196.743622 657.623291 46.208012 67 62 60
186.763763 766.015137 253.084518 84 79 78
211.919678 668.982483 316.905212 46 46 47
139.085495 808.043274 215.924026 68 71 79
250.437042 861.951599 152.642471 134 120 118
206.801208 872.816833 239.333832 88 81 77
213.720459 888.233582 248.412003 133 116 105
235.285828 871.819763 257.165436 56 53 53
244.893951 930.225098 256.647339 93 80 73
286.732697 619.449219 124.525948 37 35 35
261.301025 627.886536 269.472198 112 105 103
287.508362 753.373108 327.992126 95 90 89
353.765503 780.089478 241.670853 103 96 94
287.908447 960.557983 199.727997 115 109 107
116.351921 480.990265 142.244629 131 126 129
221.283325 268.654419 130.918274 90 85 82
228.957748 345.355072 136.198456 91 83 78
328.859100 479.899689 266.272064 137 130 128
47.528023 680.833252 213.870850 95 87 82
222.036102 561.296265 370.338196 49 50 54
170.550232 763.993042 77.019478 93 88 88
169.364517 966.287231 170.341751 113 103 96
159.806046 780.192139 269.005951 99 101 108
194.829422 61.639141 69.879997 81 79 81
236.473969 69.925674 89.896103 100 92 86
165.999252 131.363693 96.173248 95 89 88
116.828049 448.940094 115.163971 110 104 102
183.068863 497.043518 67.491104 111 104 99
189.042450 469.532562 243.482910 128 122 123
230.628738 402.983765 140.803711 102 97 95
218.272781 415.796204 271.920746 95 86 81
364.225769 145.326477 225.587433 99 90 84
354.892700 39.552299 319.964355 131 119 111
283.934570 149.930145 266.356689 130 124 124
322.046692 432.327484 181.793930 128 123 122
329.362457 421.257019 268.377075 112 105 102
120.699715 567.965149 79.660934 106 97 92
29.919756 686.710266 151.778122 101 89 81
210.849045 578.901550 37.825787 116 108 104
154.407120 572.956909 226.036133 60 61 65
138.090118 598.586304 194.211746 126 117 113
154.021118 732.065002 78.300858 114 109 109
151.576004 594.179504 321.448120 104 105 111
246.364090 669.179993 350.007660 132 131 136
169.293304 949.914490 206.065475 48 46 47
184.775574 974.638489 272.630219 85 81 83
269.851013 866.065247 215.130402 143 133 128
274.044037 1000.135498 217.263168 176 159 148
347.153748 816.658020 255.329880 198 184 179
126.944519 27.264948 187.206909 146 135 130
205.357788 74.879669 149.644623 111 105 105
208.407150 112.202995 165.853363 88 85 86
162.548538 153.752441 125.650131 119 114 116
235.496765 157.089493 93.809692 128 121 120
119.476761 483.577789 119.672455 111 106 107
110.501808 412.510406 175.132416 101 93 91
171.200272 328.430786 103.791595 96 92 93
157.617966 352.327026 200.346039 107 98 94
141.136383 381.686981 209.049774 146 139 139
222.354462 279.263763 143.010742 91 86 84
249.919144 474.090851 117.442070 125 121 121
227.135376 380.582489 145.041031 85 77 73
236.393967 418.894226 165.316345 48 46 46
209.220261 441.840668 253.680389 143 138 140
263.068909 171.366318 244.201370 95 89 87
266.909210 190.711090 259.000366 96 88 84
260.470856 314.838623 229.701263 85 83 83
331.155487 289.098145 241.081696 93 87 84
275.696259 294.140289 320.868195 117 107 102
108.593330 519.412659 162.526337 143 139 141
124.971260 642.587402 220.821976 110 103 102
27.209404 675.611084 151.381241 138 132 133
192.125031 508.660461 46.233524 81 76 74
191.433395 562.406677 42.816853 110 102 98
202.925232 537.635742 33.747974 84 79 77
115.989243 680.900696 286.669891 137 130 128
208.962265 699.509766 297.169067 88 85 86
189.641479 823.724060 88.211830 44 45 48
204.438690 785.968323 61.880295 96 91 90
209.149200 798.089966 60.723808 75 69 66
199.626724 886.878113 153.974899 136 125 119
236.753006 893.876831 170.228424 90 77 68
232.729416 1011.321960 235.423431 189 181 182
246.006943 901.578796 252.921082 118 99 89
305.796143 575.667114 225.682968 109 101 97
318.182800 611.110718 157.288254 94 85 78
291.547272 735.884644 93.631790 111 107 107
292.972687 645.146912 130.985992 96 92 91
332.846466 706.270935 191.744690 140 132 130
308.476074 843.947815 190.988464 92 86 84
326.851410 791.538696 167.356644 82 75 71
345.875824 795.635437 204.315689 105 99 97
331.327576 832.953857 226.845917 152 138 131
274.662659 972.131287 209.075409 102 90 80
288.540131 787.760864 305.659546 81 72 67
320.712616 798.249084 320.347992 184 175 174
341.162872 811.065369 284.343903 132 126 132
343.842285 806.701538 297.979919 183 166 168
189.236542 104.769867 78.255714 81 78 79
232.428650 163.854095 145.801697 78 75 75
156.871185 335.443329 122.462479 95 91 91
220.510422 411.865906 191.037994 107 105 106
245.526230 497.459167 422.076874 146 144 148
334.445129 85.896095 206.080795 86 84 84
337.120514 428.292023 246.897598 142 133 131
321.706696 486.339478 182.433914 138 131 130
286.240936 442.252197 293.951294 152 144 143
301.515686 448.309296 294.396942 146 136 134
55.667137 696.863892 117.761963 94 89 87
195.218521 652.729370 61.689949 93 89 89
228.750046 675.840332 70.689217 86 79 76
123.309464 710.538269 276.071411 146 128 125
163.947250 620.157776 262.500763 94 91 90
206.386185 633.884338 346.943848 99 96 98
76.495735 799.527649 155.655975 119 113 114
202.436478 942.742981 168.065994 54 55 57
200.548355 1007.316345 235.108932 186 173 168
189.875580 218.121948 170.294724 88 85 84
126.828514 451.556946 194.586502 123 114 111
245.214661 283.559906 286.438477 121 116 116
319.423523 79.480659 267.797363 103 94 90
285.192657 217.846329 294.501404 111 107 109
310.695190 504.970398 180.519028 143 134 131
329.343140 451.896820 196.896759 109 107 109
257.551819 274.955170 300.001556 125 119 119
91.440720 744.722534 191.674774 94 82 74
187.775101 715.498108 72.132713 92 87 85
241.224152 649.544617 341.792786 62 62 63
163.545410 985.612976 225.830368 152 137 129
180.346649 986.119385 258.985138 73 76 87
306.448639 731.717346 224.381699 53 49 47
338.005127 754.547791 168.758453 125 117 114
308.475220 737.815735 264.184204 64 63 64
332.888367 790.927307 348.935699 225 215 216
126.002586 13.840100 168.819534 83 78 75
175.990219 90.822189 95.822609 80 76 75
217.425598 53.049366 137.237396 84 80 79
220.110184 251.866959 158.341187 73 66 59
154.453033 267.987762 134.804138 91 87 87
189.170151 322.427704 103.969948 115 110 110
198.642883 298.566223 96.681351 117 112 113
194.715561 352.954895 109.874741 53 53 56
129.787460 462.607300 100.733330 102 96 94
226.953522 430.928558 104.522583 111 107 107
235.615250 457.836853 104.945030 123 119 121
127.484123 416.148590 206.380661 122 115 114
221.712326 364.304718 263.723755 88 79 73
251.736435 442.406311 282.598602 121 110 107
208.890076 448.058167 257.651031 144 137 138
232.888367 475.909576 261.953766 125 114 108
312.555420 107.818260 255.607254 86 82 82
352.764771 36.498226 333.524872 150 133 121
337.208588 144.174652 290.634247 111 107 108
352.932526 196.914307 278.257446 142 136 138
279.410706 310.091827 225.962830 74 71 72
299.016724 458.408386 153.878662 129 125 125
323.659363 454.474884 181.979187 127 122 123
90.097763 715.380920 107.251633 114 108 107
42.575558 661.093628 209.219742 127 121 121
84.245140 700.601563 221.258438 165 127 111
105.900223 652.934448 191.544128 52 51 52
169.725220 528.538147 44.019363 107 101 98
236.972153 563.911133 94.099861 127 123 123
221.496338 607.935913 85.693840 77 70 66
133.571732 624.333984 210.721649 65 63 64
145.960724 613.806458 208.279175 96 90 88
165.342758 631.813110 317.930847 69 71 75
200.010010 618.960693 351.770477 105 108 117
210.270721 641.321960 359.187683 62 63 66
251.055817 720.893860 291.574188 92 84 80
103.178551 835.533203 125.639915 120 110 104
109.966766 807.921814 187.162003 138 129 128
141.797165 825.093506 97.781532 142 135 134
132.770645 841.916992 113.911034 142 132 128
166.365540 833.308472 209.976456 101 93 89
159.057739 862.706665 175.322632 154 141 136
190.870850 878.272339 231.415085 106 95 88
213.651718 867.179810 229.319489 55 49 46
252.335007 871.872742 200.628220 107 88 80
243.850830 881.323547 227.949753 120 98 84
198.133759 984.638916 163.939606 148 138 133
203.114334 1007.038086 171.634445 86 75 90
226.720200 899.058594 257.455048 107 90 80
331.668884 549.228882 194.397659 102 93 88
362.121124 746.373474 270.352509 114 107 105
364.816467 731.740112 363.699463 157 146 143
343.637482 829.215820 193.948715 129 117 111
266.255798 963.456177 310.824493 207 211 224
176.442535 100.154938 121.434662 105 101 100
181.189423 70.216362 125.325516 69 65 63
225.374069 105.811203 144.685593 83 79 78
115.117081 357.745178 158.725937 124 118 118
102.944092 448.810547 129.045624 109 104 104
136.326782 274.979370 143.792496 82 74 67
131.474228 351.164276 128.777664 103 100 101
216.955246 293.443420 164.498962 96 90 88
158.163651 435.173859 87.846695 97 92 92
130.638412 483.160858 110.617828 115 111 113
218.799500 394.146149 269.111206 126 120 121
343.872742 189.634003 214.691650 113 109 110
358.608765 6.688377 313.776855 97 90 86
346.175873 101.020180 281.636597 84 75 70
283.885620 383.650238 176.846237 110 106 106
42.450680 728.291870 125.296219 111 105 104
116.636002 716.645691 120.313263 64 61 61
68.490311 648.401917 197.637756 96 89 86
72.585915 697.917480 214.953735 118 91 85
112.468430 660.152954 234.040894 55 52 52
137.039368 533.176025 88.065399 110 100 94
176.909775 512.284973 242.676422 136 130 131
246.915359 709.862976 77.480972 93 87 85
148.217010 738.399719 253.854004 107 98 95
191.039413 640.237976 286.942596 88 84 84
235.854141 632.821289 278.370056 79 72 69
155.623108 642.364807 291.486450 61 60 60
166.736481 647.652405 309.980103 62 63 67
207.920929 675.582336 299.046326 98 93 93
191.191803 706.971802 302.230164 89 90 96
97.586731 773.313049 105.726929 82 76 72
71.086296 802.929504 129.390610 123 117 116
222.148178 813.639648 86.160957 135 127 125
177.938370 788.671814 252.762482 83 82 85
188.682571 1005.135376 246.536362 181 166 159
243.136093 827.189819 264.342316 40 41 44
302.874329 661.996399 95.364822 107 100 98
310.927765 655.546509 105.760818 85 81 80
274.466339 947.081909 203.802597 84 78 76
155.292999 7.911722 147.653564 79 75 75
168.423080 177.203964 101.945915 88 84 83
214.277252 281.490814 154.016235 68 60 54
240.836136 341.197418 238.635162 96 94 97
336.300385 29.767597 215.370361 106 97 91
297.462250 192.940231 221.698822 84 82 82
358.039825 198.697876 222.873627 96 91 89
307.882202 323.737030 311.869049 133 125 122
332.736389 380.392487 268.743958 119 113 113
115.077759 562.306152 135.456512 36 39 44
116.498497 546.413818 161.139542 120 114 114
70.081642 722.423157 191.451767 114 101 95
102.118561 712.960449 197.002090 91 82 76
211.675369 595.562866 43.565289 85 78 74
252.423401 549.881592 255.585266 128 123 123
193.403290 859.046692 120.244812 174 163 160
317.377777 589.136719 127.789627 77 74 75
284.516998 580.170410 231.019424 50 52 55
308.539673 714.671814 100.429054 79 73 70
335.511963 754.447083 216.139664 71 68 67
303.499298 744.715332 321.776245 63 58 57
272.016663 852.657898 243.511810 118 109 105
326.362976 797.727722 302.085663 138 126 122
240.339905 63.975018 111.228600 79 75 74
232.019394 121.419334 71.054771 121 115 114
159.396591 149.084122 105.102287 112 109 110
168.320496 168.118042 79.900955 120 115 115
230.885773 170.328781 118.230392 98 93 90
199.492691 170.304504 151.011856 115 108 106
226.998947 154.420639 159.895050 83 79 77
109.873703 437.261627 164.269592 131 126 127
112.637886 452.726990 172.602783 130 126 127
142.044098 314.471985 124.485085 86 77 70
147.662186 311.061340 172.208450 112 106 105
191.039200 334.329041 197.369690 70 62 55
154.146561 448.789063 88.784538 104 101 102
255.323074 457.431396 137.926285 97 94 94
246.748718 286.494781 260.283600 76 68 61
237.112640 400.608032 276.480225 135 129 128
238.292892 384.317963 287.755280 127 121 121
333.922760 70.265274 206.036514 83 78 77
313.846222 92.467087 217.072342 86 82 82
360.762238 107.631195 213.339462 124 118 117
336.049011 191.157181 208.661819 114 110 111
327.837738 249.079834 221.891449 84 78 74
382.231812 34.060791 292.609192 134 122 116
342.380615 35.226250 364.320343 180 167 162
354.596924 133.073334 253.406723 129 121 119
328.221710 448.121765 219.733643 120 115 115
265.646729 286.183899 309.437500 111 101 96
261.848877 339.684143 304.632568 88 75 63
278.273712 356.442078 309.166443 106 92 80
302.419495 492.987793 263.464447 148 137 134
72.611603 748.097534 107.617653 112 107 107
146.478806 580.295471 54.961830 113 105 99
138.376404 615.579346 126.786903 93 88 87
152.411758 618.088379 233.032562 50 49 49
207.888870 557.269958 248.770767 48 49 52
171.916519 733.952759 79.196609 70 66 66
190.942398 595.113586 326.940704 58 57 61
188.441376 735.230347 288.168457 83 81 84
170.271210 762.088684 279.059143 94 99 108
113.687477 777.631470 103.746727 91 87 87
119.830185 818.974487 185.062042 150 142 142
165.887207 864.759277 92.871956 46 47 52
207.172607 825.030396 82.725807 130 121 116
231.116943 861.360474 139.272964 64 61 63
237.796875 882.104004 164.156937 117 91 86
211.258728 847.750732 238.898178 84 77 74
197.050293 891.592896 241.991592 91 85 82
228.444992 879.721130 246.413605 87 70 71
154.094849 964.596619 194.563492 158 149 146
156.067749 969.880859 205.234634 123 114 110
173.233398 972.669189 253.633240 167 153 145
245.980881 1004.541199 254.734421 205 186 176
225.706802 970.160828 293.743011 173 159 152
296.453918 574.645630 138.948776 99 96 98
307.327393 581.812683 158.491028 82 79 79
308.322968 617.707520 148.820572 79 74 73
300.249908 618.632507 221.447586 123 114 109
329.045990 684.869141 160.273956 117 110 106
324.078064 778.694214 135.869293 106 97 92
257.846252 916.726929 212.437744 76 68 62
254.404739 929.930298 211.605301 51 46 43
254.360001 898.205994 235.306183 116 96 81
348.598572 798.490845 300.124725 102 95 94
343.785034 768.410889 369.501251 155 145 142
357.378601 781.623840 333.929840 179 168 165
274.491394 984.181030 259.817017 162 147 139
223.415222 68.440956 65.288368 101 94 91
147.412704 222.361374 133.407700 90 80 72
222.625168 358.869049 247.827377 93 90 89
374.007324 13.532114 252.123322 126 117 114
380.217896 35.322201 305.947174 147 135 128
315.504944 132.913391 279.519897 98 94 93
74.228081 705.546753 112.986938 106 101 100
228.164536 513.148376 86.856583 94 87 85
151.472443 646.751221 94.942520 105 99 98
204.558792 602.403748 376.880371 92 94 100
132.520798 650.700684 299.232880 95 90 89
150.771301 756.735168 259.373932 81 83 89
59.152523 776.922363 153.539490 147 141 142
250.610214 784.724670 83.464539 102 94 90
235.943970 1004.692566 176.161362 175 164 160
185.789459 1008.232849 225.855911 197 182 176
216.143661 828.319824 258.146393 44 45 49
281.435638 580.834656 129.886658 75 73 74
258.158752 574.007446 246.322540 57 55 58
301.892609 829.890137 251.352036 132 121 116
216.903259 103.270432 147.024643 77 74 75
164.273987 162.603210 107.416534 122 118 120
187.317307 208.203323 165.250916 109 107 109
116.080887 431.423157 187.296890 135 130 131
207.515717 510.819183 73.917458 105 100 100
322.043274 191.788330 287.865723 83 74 67
327.727661 372.061798 220.345093 130 124 124
277.054047 442.441681 154.087921 121 117 118
295.362427 335.567535 307.435974 112 94 76
57.053318 657.700012 204.561752 114 99 88
186.314224 629.158569 89.350464 48 48 50
217.566605 518.293030 59.892780 105 95 87
171.277252 669.187378 77.076157 83 75 70
185.212646 702.815796 70.365395 85 81 81
252.009735 684.225464 295.571777 76 71 69
102.542572 770.666626 173.938721 124 116 113
191.122192 973.157043 163.061966 105 97 92
291.806244 611.307068 104.964134 107 99 95
267.928345 711.703918 297.309052 80 76 75
340.775482 751.791077 378.864899 105 95 89
321.962128 819.142517 151.098587 68 60 58
264.330322 794.298157 321.893524 107 97 92
215.437363 9.869352 107.702042 64 60 58
178.186676 4.922968 143.660156 105 98 96
162.648865 10.554880 178.448349 120 110 106
233.208130 137.592163 140.189163 83 80 79
129.887131 321.502716 138.769180 91 80 71
184.849716 314.511627 95.372765 111 106 105
137.825241 281.059723 147.758759 114 109 109
144.415207 299.978424 154.402496 123 116 116
161.760590 284.329895 198.053833 111 102 97
131.466507 318.440796 160.790009 99 85 73
151.048599 498.963623 66.444542 100 94 91
132.799683 502.208221 115.481308 87 86 88
165.425858 475.258728 88.723320 76 73 73
177.935928 409.527710 208.213211 95 91 91
350.327118 222.415894 222.089706 112 107 107
381.080444 34.856815 277.682678 124 111 102
309.868622 157.518372 288.644379 126 119 117
264.813141 294.880798 237.958496 99 95 96
339.520905 364.637695 251.711975 116 109 107
267.525970 418.460876 152.387177 102 98 98
332.295776 462.140900 218.090851 148 141 141
298.502655 265.885406 314.704468 107 101 98
279.358368 400.837158 306.407471 160 154 155
101.909760 600.493774 138.198380 57 53 50
120.752213 696.580505 103.931511 92 87 86
74.125023 723.813354 110.484055 85 79 75
90.735016 720.043701 192.372665 105 92 81
250.147339 602.231628 104.951820 75 69 65
220.568436 596.504822 345.621063 63 63 65
199.186752 676.888123 332.587372 134 131 133
78.525040 788.797180 169.580719 156 147 146
92.384117 790.152710 175.102753 118 109 106
211.417664 846.194702 216.678894 112 85 79
222.039124 850.343750 250.298325 76 69 66
178.470078 923.689819 212.288727 101 89 82
306.358734 509.581696 257.410309 160 153 153
292.956207 541.504028 257.793365 164 158 161
268.373077 687.401611 309.045593 107 99 96
279.032501 713.834595 274.554901 52 49 47
301.009705 781.800842 116.588913 116 107 102
338.573029 831.674744 238.238998 158 145 139
271.236511 937.565186 244.750275 59 55 53
259.720062 820.630737 269.357330 53 50 49
273.425568 831.790405 285.303070 124 117 115
261.917084 835.936707 306.003082 104 93 90
353.279175 806.447205 262.300537 171 149 138
186.539917 15.959933 70.013367 96 91 89
166.495453 180.355164 125.896858 115 110 109
213.534882 177.584946 66.326248 92 88 88
236.123703 216.946442 138.504181 85 78 74
157.932587 282.281982 122.632568 101 98 99
205.736511 311.878021 183.757462 62 55 50
155.676010 409.719635 206.407516 97 89 85
162.411774 395.707489 206.143265 135 130 131
224.955170 487.599884 268.376434 163 155 156
333.199341 223.348572 208.689636 94 90 89
326.618103 12.245810 320.822540 85 77 72
377.435211 45.459515 284.992218 138 124 117
260.259857 477.708710 117.864693 137 132 133
299.797577 496.178253 142.802597 135 130 131
109.509048 542.248901 151.057312 123 118 119
122.669441 762.552368 210.634933 117 106 101
144.811722 623.340210 221.600937 63 62 62
253.014740 699.302734 309.987091 103 92 87
131.939728 821.095764 177.484390 91 80 75
159.867004 960.046265 226.881134 47 45 46
202.268448 937.309082 164.609772 53 52 54
340.892456 585.653137 190.247330 78 70 64
291.634491 697.534058 260.965759 94 90 89
237.189453 85.853584 86.289688 103 97 96
211.765121 32.191998 133.808426 80 74 70
167.608963 158.631363 84.172440 102 96 94
236.179550 166.543823 106.712494 122 116 115
219.057068 173.418274 152.379028 98 92 91
116.584694 427.396301 126.773705 124 120 121
113.309586 394.754059 193.023697 127 118 116
188.429688 257.130127 75.104744 111 103 99
175.073517 345.026062 105.996452 61 58 57
230.118423 382.270569 123.638550 114 109 109
166.675613 322.576904 190.151962 67 61 57
225.804108 361.151123 236.456009 104 101 102
129.088303 505.464935 202.673828 123 116 115
222.371384 389.454285 233.398865 86 83 84
240.201553 387.599792 205.834763 71 71 74
355.033234 7.949238 250.636353 66 62 60
337.615814 28.635555 371.590698 122 111 104
354.723083 119.789833 281.443176 105 97 92
263.028748 351.455322 191.606247 84 83 84
278.904633 487.021454 124.054367 99 96 97
292.802704 394.967529 179.677109 113 109 109
330.434540 384.281952 212.033249 121 115 114
327.469666 442.372864 225.634140 116 110 107
266.360046 365.640625 310.627563 157 152 154
321.142303 381.775208 284.952942 140 131 128
112.512222 622.570496 230.837143 87 81 79
119.684425 739.372742 121.746025 77 73 73
139.408539 574.308899 65.765373 120 110 104
141.774338 629.932129 110.467018 59 59 62
209.144043 528.812134 44.700592 81 76 73
207.658661 525.667664 249.508041 141 137 140
233.175339 587.235168 251.757172 46 49 54
147.363449 769.525452 82.719559 104 99 99
194.842529 713.328369 62.766991 84 79 78
250.060013 740.636536 84.009880 101 96 96
245.405045 558.280762 380.094879 52 55 59
228.008118 689.176941 306.627380 132 121 116
135.310501 848.518127 173.057327 148 138 135
248.227707 878.739197 170.100204 135 106 108
161.929550 966.918945 185.557068 148 137 133
177.101746 997.769165 187.190384 169 156 151
197.589706 971.027588 286.552063 143 133 130
253.451752 536.462708 97.836823 87 76 67
306.797516 538.730347 232.753220 142 134 133
279.047821 622.468933 233.169067 112 107 106
301.433319 689.670715 97.951431 97 90 85
334.698486 671.764221 154.981750 107 98 94
333.833069 729.294250 184.672745 108 100 96
332.984985 728.947998 233.826309 108 99 94
332.475311 750.986450 234.961426 77 75 76
351.348022 758.862915 246.760178 98 91 87
358.119934 758.514771 255.383575 107 99 96
276.707642 631.439392 254.700592 99 95 95
288.159180 765.089355 315.001099 66 57 51
299.015594 742.108826 363.035431 108 92 87
371.522247 749.307861 282.545013 100 95 92
320.491364 772.121033 129.004135 119 108 101
329.624268 819.050964 276.756500 137 122 116
169.549881 287.360504 98.712654 119 115 117
227.556183 613.141357 356.218536 63 68 75
174.063797 59.942516 119.842476 118 114 116
198.920227 11.396457 61.940948 79 73 71
133.674896 30.958158 165.521683 149 138 134
175.837936 11.229661 191.477722 122 112 108
200.009888 17.371742 141.343811 93 88 86
181.040787 206.223587 76.280724 120 117 120
180.486771 302.592560 97.245079 98 93 92
200.786346 266.198212 85.928482 122 114 110
204.223114 254.009094 79.737671 122 114 111
225.781143 349.449127 119.411507 97 89 84
142.582779 298.642548 180.622498 110 101 96
175.268951 364.157135 196.780380 91 87 86
236.996460 364.809052 215.949036 104 102 104
168.602631 434.990753 211.540680 100 93 89
209.021820 399.825256 195.573975 67 64 62
252.215561 266.167358 280.953766 127 122 123
239.693588 334.523254 286.352539 86 75 66
249.844757 367.171112 294.328461 143 138 139
308.126709 92.027306 245.722656 109 105 105
324.279785 29.270840 242.871155 95 89 87
325.560455 52.806721 254.593002 100 96 95
373.279053 83.521873 225.197571 92 86 83
274.469543 239.885864 260.833923 78 70 63
326.477814 9.543854 305.109100 93 86 82
348.108215 9.398258 289.149261 80 74 71
386.986359 20.661835 339.914063 111 103 98
334.360077 125.919228 290.886200 136 131 132
302.681000 185.155792 271.592377 103 96 93
337.434143 246.071671 285.031860 130 122 120
303.180664 310.401398 223.046280 93 89 89
336.617737 375.180573 237.719543 140 134 134
287.432007 460.371674 137.621796 123 120 120
317.676361 485.614929 163.877197 116 108 104
328.578125 477.360016 227.745331 150 142 141
260.993622 308.735168 308.176666 143 136 135
258.318817 373.508667 304.134796 117 109 107
257.882904 385.828217 305.816650 143 136 136
265.739624 398.260376 311.388397 127 117 114
282.295502 451.782501 279.270966 139 128 122
116.494591 563.849915 95.871307 82 78 77
110.052155 586.319580 158.006302 49 51 53
114.960121 636.578003 193.694931 96 90 88
52.934875 720.262146 113.722878 94 88 87
25.106125 662.421326 142.915909 109 104 104
97.344322 739.558533 184.554535 76 70 67
249.694839 555.221558 96.622528 96 87 82
215.514328 588.417542 78.139526 58 57 59
142.748276 600.050659 205.359192 103 95 92
156.414368 599.219360 219.974808 99 93 91
221.463531 649.055908 74.237381 71 66 64
248.647110 680.559265 81.001320 104 97 95
111.542274 692.493591 280.087280 118 117 121
218.071152 671.135559 342.171326 65 66 69
224.396973 647.229797 366.009308 62 65 70
112.578339 821.814392 108.145950 114 105 101
96.992226 781.679077 180.650223 101 93 89
103.636734 846.065063 148.661118 151 141 139
184.577942 795.637878 76.655960 87 84 84
132.680145 801.943420 205.561920 118 111 110
147.130157 953.971558 207.601929 123 112 107
183.938354 891.878967 198.818817 129 101 95
177.317627 947.998596 228.753677 105 86 72
159.232864 968.961731 228.930054 150 138 133
198.382492 910.449402 169.502548 101 86 79
210.296783 1002.147034 253.471725 196 181 174
234.929642 825.075745 254.134583 45 45 48
238.220093 911.151978 263.346771 137 113 104
295.957153 589.483521 113.393394 86 83 83
305.027893 614.582031 150.658508 66 60 57
290.097321 635.918701 251.547882 119 112 111
359.934662 602.611023 139.340225 69 63 59
267.538696 646.697449 92.260605 70 67 66
287.552368 651.235901 108.052261 72 70 70
309.055481 640.820251 124.970093 73 70 69
302.715607 670.237000 238.766205 118 111 108
324.273926 691.012512 147.202286 92 81 71
303.796570 702.017395 275.184814 74 71 70
308.460510 724.894165 362.907501 113 111 114
317.593414 728.701599 294.060059 100 96 96
325.051483 755.491272 376.062897 169 162 163
366.294769 763.472290 360.977448 110 94 85
367.017456 748.239624 350.214600 98 92 89
346.762299 777.812012 224.960571 110 103 101
288.024017 788.406128 267.919830 70 64 62
306.965485 798.664185 294.164276 112 105 102
318.542267 813.288635 283.954468 116 110 117
184.691772 9.506901 168.837662 120 111 106
172.659836 20.615372 198.338196 152 138 130
199.802200 13.356062 161.896515 115 107 103
207.725967 53.902069 143.230377 95 89 88
227.545395 137.052078 71.437477 107 102 102
234.850800 187.400894 88.581512 107 102 102
227.247665 226.011108 83.515900 135 130 130
196.901382 130.673080 145.373627 88 79 75
206.640976 143.345032 160.079163 119 112 111
110.120651 494.227936 174.685715 141 135 136
247.466812 305.165863 252.121277 92 90 92
166.605042 440.133575 84.501785 99 96 96
213.505463 438.238495 106.198921 78 75 75
244.591568 499.759064 95.323105 142 138 140
172.104996 491.552124 229.437576 111 106 104
245.717682 430.678925 141.020370 54 52 52
232.027115 342.263611 263.909546 89 83 81
227.940582 365.345978 276.003632 116 108 104
240.068481 372.138428 283.763336 118 111 109
333.538208 112.409668 205.837982 92 88 88
351.908661 72.992554 209.003860 99 93 92
275.084351 149.840714 245.001923 92 87 85
358.029663 135.023331 217.628174 82 74 68
369.310883 152.409363 252.185257 113 109 109
372.215942 160.680695 246.239197 102 98 98
301.788147 108.843758 266.623535 86 84 85
313.224640 118.374481 275.964569 95 91 91
381.672272 79.175934 270.784760 125 119 118
368.104248 154.279572 259.703583 113 109 110
267.964844 374.627014 182.018661 62 59 59
282.736176 355.767517 194.402252 102 99 100
269.187317 363.080780 310.320038 128 123 123
277.068542 481.038025 283.144379 147 137 134
334.419037 378.648254 282.574951 142 134 133
334.909393 415.071991 260.456757 131 125 125
326.949707 431.858856 268.498444 143 136 136
118.183693 636.812927 154.694397 75 73 74
122.114433 580.966736 189.456161 54 53 56
30.287954 652.865173 168.026718 104 92 83
46.513672 669.168640 130.654495 109 104 104
35.733612 703.288147 129.346710 81 77 76
35.187874 712.111023 155.354294 133 125 124
84.983215 673.787720 235.986038 113 100 90
130.507553 552.441406 67.618675 101 96 95
215.995300 540.822815 66.915642 96 85 77
241.010651 511.002960 89.339447 136 131 133
241.843857 532.189941 92.053436 93 81 71
227.107956 586.098938 92.244781 98 93 92
126.956680 553.051880 200.115173 61 62 64
134.663208 609.329041 148.010223 95 90 89
151.307968 709.005981 84.072685 108 103 102
195.787354 730.173157 48.419884 68 65 63
164.749527 617.714539 328.537170 86 87 93
204.597641 590.019775 260.672729 47 50 54
242.976151 536.293152 390.799072 35 39 44
196.593658 731.902771 279.067657 74 70 68
216.483017 747.386536 272.165100 73 65 60
143.680206 877.728210 119.334816 68 72 80
215.807861 790.392639 71.638916 75 68 64
239.915970 843.895569 136.453354 157 149 149
167.033936 946.483948 171.051773 87 85 87
187.864029 925.709839 249.324799 103 91 84
176.222946 966.847656 159.705307 102 92 85
162.883667 984.049194 240.220947 144 142 151
218.237183 1018.258118 212.595444 201 183 173
248.896317 1015.089050 215.950714 212 194 185
226.769394 835.665344 276.356903 45 47 50
242.275345 815.166443 297.570190 67 65 66
168.884979 960.881897 263.358490 138 126 120
315.917480 528.563660 165.557236 105 100 99
318.639008 608.514465 185.204849 87 82 80
318.614899 594.230225 227.937912 61 59 59
314.843079 725.593079 249.321991 33 31 32
300.681152 716.201111 270.118408 59 55 55
291.522461 748.457336 273.628235 74 71 72
261.843933 952.955627 171.775436 108 98 92
366.516022 776.948853 294.891907 133 123 118
264.996918 975.425537 275.213715 168 153 144
273.518005 967.524963 303.958588 114 110 111
226.484314 8.469650 65.446304 47 46 45
186.848495 86.728363 144.692368 107 101 100
164.086121 245.366791 192.002182 98 94 93
202.887909 166.294052 157.804672 107 101 98
249.306686 354.207642 300.280640 128 123 124
301.531738 216.801224 211.526382 83 78 76
368.460724 47.464993 306.196564 121 107 98
362.033112 165.348740 272.948181 124 119 119
105.191917 616.430664 89.703720 56 59 65
194.425415 623.803650 58.296978 48 44 42
168.680771 527.143921 226.252777 105 98 97
230.013489 703.310974 70.217140 104 96 93
174.818390 596.179810 313.738312 101 99 102
231.085648 533.760315 379.697113 52 53 55
208.882996 693.122009 313.516937 56 60 66
124.481804 773.366760 232.747391 66 70 76
305.289154 553.168823 135.377609 99 87 77
360.296570 612.668762 161.762802 135 122 113
309.756775 727.545349 300.138672 101 95 93
187.661636 65.844872 75.126785 68 64 63
228.411316 62.074066 72.628220 104 97 93
135.135849 34.729324 206.518311 157 145 140
209.607391 13.656506 132.814529 62 57 55
236.454453 189.477005 118.292389 97 91 88
149.420929 239.189377 148.801056 121 117 118
108.349342 377.662262 157.036087 138 134 137
118.046509 447.490479 178.610504 122 115 114
181.717010 282.760925 89.284439 111 107 107
170.654037 314.712585 102.780777 110 107 108
201.095505 262.325378 189.713547 92 86 82
241.881042 428.501190 141.135818 52 49 48
374.016724 56.722664 238.424210 99 93 92
302.798950 243.363266 209.541412 92 88 87
332.662079 89.737206 289.204376 82 77 75
324.204651 110.629028 277.077972 109 102 101
358.418579 156.244492 285.979828 127 121 120
72.392967 659.094238 119.314827 109 105 104
41.684555 638.847839 205.759476 126 123 124
224.859421 561.521179 80.107109 92 88 88
131.255539 576.919922 201.913345 54 54 57
132.632050 616.727356 243.451035 77 72 69
126.478821 654.910339 119.292526 68 68 71
211.851379 641.613770 104.645927 91 86 85
247.209854 694.983826 71.678413 102 96 94
168.898026 610.515686 308.645416 76 75 78
212.657120 572.302734 378.516602 53 56 61
237.928223 629.717468 269.618042 91 87 87
162.811264 647.942627 327.972504 146 142 145
161.978607 730.209595 264.590668 80 74 72
181.340286 702.446655 301.384430 84 83 87
235.110641 678.098022 295.209473 103 94 89
107.181488 787.602051 91.470085 113 109 109
194.078323 770.703125 53.972530 127 117 112
176.897903 866.030945 135.569229 116 95 95
174.039627 877.507813 178.534256 124 112 105
181.840912 913.527100 179.843948 122 104 97
234.605118 1011.645386 188.583282 171 163 162
201.771729 1015.899658 212.659897 202 184 174
207.692871 911.332825 259.421570 132 113 101
312.072296 522.150818 236.532898 121 108 99
335.175720 612.795288 190.828430 105 93 85
322.580109 722.084961 315.716736 87 82 81
282.876099 748.652527 352.652954 143 128 118
323.775421 711.255371 316.583282 90 85 83
270.065765 810.510864 250.235992 92 86 84
184.219727 108.989174 89.941559 65 63 62
147.288834 2.507427 146.204880 73 71 71
206.458969 84.096153 156.068314 57 54 52
189.064590 147.249252 74.586136 85 83 84
238.175140 141.541840 124.426025 101 95 94
225.317184 208.682053 87.804153 117 110 108
158.708389 337.081451 116.685059 70 66 64
215.466644 269.063019 94.256081 116 108 105
209.042938 319.875244 108.836304 135 129 129
191.367310 353.573853 202.294052 65 63 63
245.212341 355.258911 217.676315 75 72 73
241.386948 337.640961 242.318069 85 82 83
248.396286 326.960541 231.544479 77 75 75
152.285278 493.148743 102.021271 91 87 86
202.280090 401.954926 84.028404 73 69 69
213.078918 514.980774 56.061874 105 96 91
231.816956 479.060394 98.496590 139 136 138
289.518585 187.160721 225.221771 90 88 89
285.109589 162.882385 260.438965 104 98 97
327.780518 160.957291 297.893677 152 147 149
271.004150 323.171936 217.990433 93 92 94
323.381989 377.852814 202.500092 87 79 73
328.566895 471.815491 188.432388 125 114 109
324.369141 496.566071 221.353729 113 106 104
326.739014 486.640076 241.421829 143 135 132
121.491394 610.011414 79.877365 53 57 62
112.622498 586.921204 143.101639 74 71 72
117.220787 693.919434 125.378609 64 62 62
114.947830 733.367981 192.678116 102 91 85
162.288635 644.162476 287.494659 54 53 54
232.015701 662.272034 349.824615 38 42 48
97.096840 833.702087 142.326355 144 132 128
192.166687 803.877869 69.861137 81 75 73
162.611328 872.982788 123.460938 68 68 72
136.049591 797.668396 210.789780 62 56 57
223.388931 822.513062 243.841354 55 53 54
247.356750 823.821167 281.493469 48 49 52
247.680008 949.662903 318.078003 156 156 163
298.144806 545.514099 229.565094 145 138 138
293.719971 553.406250 241.737976 158 150 149
372.636993 730.603455 353.463470 121 114 112
289.295135 787.925415 266.132507 100 93 90
233.002029 80.479469 118.697029 85 81 81
158.447403 9.688935 201.831619 86 78 72
165.024597 131.244629 117.138435 102 98 98
178.398575 181.489822 136.539856 106 99 98
126.990120 381.779999 129.094452 106 100 97
229.364456 339.695496 158.658524 84 79 76
132.410797 440.306396 98.055878 109 105 106
182.862900 428.520966 86.294090 76 75 77
139.814789 479.952362 95.741425 100 96 97
187.648026 468.951294 84.728210 97 95 96
149.463943 429.031250 214.728256 108 100 97
231.038803 400.664398 170.187683 78 79 84
377.714844 65.996346 257.144348 103 99 101
317.318909 77.027840 220.614380 88 87 89
308.591614 462.405884 167.814438 94 91 92
252.581543 472.802460 434.482941 95 96 101
42.480682 638.913391 155.975403 82 81 83
49.499722 702.274353 119.068527 107 101 100
99.331772 735.955444 101.784111 112 107 107
234.354889 603.807190 95.633743 76 69 65
228.014648 567.825134 258.370880 58 59 63
232.229156 614.863953 255.110138 115 112 112
135.761795 647.172363 93.450874 81 79 80
221.074646 608.270630 348.685791 58 57 59
169.093018 719.825745 278.248352 109 104 104
227.650375 729.390503 284.764862 96 89 85
215.169250 864.657898 216.588196 81 67 61
322.911835 708.420105 227.483597 115 108 105
298.735352 688.538940 294.748413 98 91 87
259.822693 781.682251 86.797234 107 104 105
212.889084 11.609957 81.655907 65 61 60
245.006500 67.786911 101.036957 74 72 71
234.864014 109.849571 96.013878 85 76 68
234.240021 150.887848 107.252693 97 91 89
153.413376 375.743805 205.462601 154 148 150
241.269455 486.345734 108.785469 108 102 101
202.570084 436.944824 223.199890 58 56 57
195.762939 499.889526 248.152542 136 130 132
317.733368 145.864990 208.083374 78 76 76
266.720215 235.515533 283.199402 113 110 112
329.565277 300.593506 241.796783 83 79 79
319.223083 481.325714 175.799408 143 132 127
334.245361 432.876221 235.242493 126 117 114
317.998108 471.358093 173.451141 152 145 145
325.418884 493.712952 198.948090 133 124 121
104.608307 539.307129 120.789200 92 85 81
122.511703 617.074097 107.335991 68 65 65
128.509705 606.549316 148.160156 102 96 94
79.686974 673.091980 128.047867 68 67 68
74.860161 685.529114 231.240997 157 128 110
140.192200 590.693787 74.232872 121 110 103
211.160324 602.686707 74.033936 85 77 71
133.229736 624.847168 150.671875 91 88 89
205.288483 606.924500 241.039948 116 110 111
251.209229 745.055298 80.886261 109 101 97
126.738014 579.633057 298.856476 67 72 78
183.568604 603.133972 338.116394 50 53 59
130.199921 641.367920 291.491150 69 67 68
149.868851 694.483521 299.063019 113 103 103
162.030380 691.743042 297.838196 125 119 120
194.577194 718.787109 264.284912 62 58 57
127.928726 811.032471 190.499588 171 161 160
137.729675 851.666809 136.088303 83 79 78
183.154724 882.821533 209.109406 132 105 95
190.166046 916.016663 239.011627 131 113 104
318.269745 584.796570 142.122086 90 85 83
295.762817 582.589966 226.471481 50 51 54
327.274261 713.364746 126.044449 84 74 66
342.118073 771.659668 212.242844 95 84 76
169.300812 70.291626 93.769661 94 92 93
170.090286 85.817200 99.346054 110 106 108
235.015381 131.325485 116.937546 71 64 59
127.984833 467.380829 105.175163 128 125 127
110.227013 478.009644 175.961990 108 98 93
221.453751 297.931946 111.114822 121 115 115
138.397781 283.720215 126.844704 80 73 67
160.371429 367.617004 208.085068 127 122 122
141.314102 423.270172 100.543289 110 107 107
170.731323 408.830475 77.273338 128 125 127
186.079376 468.328888 230.786835 130 126 128
202.706985 424.105835 260.575928 133 129 130
371.187073 70.020073 216.585693 98 92 88
368.228149 209.428162 252.090225 135 125 122
320.458984 41.482719 262.217438 111 101 95
343.115997 209.291794 288.536896 119 114 115
325.323273 350.249847 229.203339 127 122 121
309.950287 411.609406 182.798111 134 132 135
327.878876 460.092773 234.929001 134 125 123
328.838623 479.396667 204.277649 123 114 112
334.451538 324.444305 257.109131 121 113 111
270.204163 412.293091 300.195251 148 142 143
299.021912 431.623749 301.601440 141 132 130
305.009888 436.412109 287.304657 127 120 118
268.915802 499.794525 263.152496 134 122 116
336.060486 397.052155 261.877502 128 121 119
106.142746 516.063904 142.247437 144 140 142
124.140587 655.152954 123.331154 82 80 81
147.139923 608.070801 113.685501 115 108 107
218.744217 596.510498 83.804756 83 76 72
140.164322 735.536438 88.079185 54 54 56
199.062607 646.527344 57.146072 44 43 44
203.531784 677.753906 42.232113 121 115 113
247.290314 765.588135 85.069580 78 72 69
147.032928 749.045349 247.594727 57 56 57
154.817932 608.868225 317.955811 113 114 121
217.057144 528.571533 399.852081 70 71 76
210.032257 681.394531 318.372498 55 53 55
92.087753 774.284973 107.111526 84 78 74
108.598877 796.648621 185.464676 130 121 118
184.413483 771.636963 62.880501 61 57 55
137.105347 766.955139 86.468102 109 103 102
167.343811 870.436951 111.478951 164 158 159
192.722595 859.633362 113.990974 114 106 104
160.111084 801.602905 242.807159 53 56 64
185.992661 868.744690 133.592484 172 160 156
181.783112 878.671936 197.727814 137 101 96
207.927856 839.768677 272.047089 85 75 70
271.980835 609.373413 101.677055 80 76 76
264.675415 728.957092 268.288788 52 48 45
275.381866 981.308228 225.556763 131 119 111
263.217743 1000.423279 247.384735 186 169 159
269.016785 848.497314 263.336945 138 132 134
157.301392 40.745701 118.825539 133 123 119
191.232788 117.496010 154.179977 102 96 95
187.710098 153.194595 147.967102 94 89 88
157.225830 214.808212 141.390488 107 103 104
179.758438 203.858032 151.629471 105 103 105
122.420113 306.185974 143.793411 98 84 72
110.764137 436.683868 135.074356 115 110 110
125.146805 431.665436 193.002075 122 115 114
191.310944 350.882751 97.643265 115 111 111
187.491364 405.508301 75.821526 114 110 111
209.097778 425.524445 99.519104 83 77 74
200.457825 482.698151 87.720505 131 125 126
228.414505 386.862854 215.273224 80 75 73
236.697891 364.117493 282.785034 129 123 122
224.000412 377.893097 277.634644 151 145 147
236.287048 424.419891 286.202515 153 146 147
384.168457 28.446869 343.534882 165 151 144
348.205292 185.603409 285.299469 143 135 134
385.115631 25.745728 324.617981 108 99 95
52.316841 691.006714 209.642761 183 177 180
148.405792 559.963928 65.005363 100 93 89
167.297958 586.429199 56.541000 116 107 101
125.810867 609.754517 109.769821 83 77 75
200.940338 619.735291 71.086411 94 85 78
157.332031 588.439087 232.460587 110 104 102
140.130707 687.864014 92.247498 96 91 90
134.952271 713.673767 95.050789 90 84 81
181.347504 621.613708 334.969604 103 103 108
135.250656 703.474060 289.163391 174 164 163
204.567307 731.416260 283.108795 80 75 74
88.089310 817.078979 152.948715 151 143 141
195.042496 825.983337 95.911263 91 80 73
247.829071 1011.867249 194.124252 195 180 173
271.748871 538.546021 104.370857 103 90 78
353.437531 582.284668 184.656921 107 94 83
266.062622 680.017761 275.111420 63 61 61
298.788483 747.742432 374.335815 116 100 90
360.388245 720.075806 304.951752 98 94 95
295.838440 804.822693 115.107048 96 86 79
262.770905 778.822815 258.974670 124 115 112
377.452484 766.830933 282.788391 125 116 112
166.652664 41.281612 111.845734 111 105 104
235.439865 14.603329 74.775627 86 79 74
205.844498 387.408386 85.644226 114 108 106
221.992188 389.792603 106.441681 119 114 114
237.002808 432.710510 114.984459 92 88 87
217.264130 424.953949 196.045090 81 80 83
246.359116 473.449371 265.399323 136 126 121
314.252777 201.902084 295.051910 117 114 116
360.592834 181.461609 273.707916 119 109 104
337.147614 212.731598 283.214111 132 128 129
259.850281 333.254517 216.673370 81 80 81
338.872772 285.779968 268.415283 96 90 92
28.120609 660.598206 189.405411 134 128 128
107.063370 705.102722 241.358658 140 112 96
216.376266 521.206238 71.348763 103 92 84
182.516785 535.152283 230.277008 151 146 148
138.623032 574.825134 301.998535 73 74 79
180.975983 638.872864 280.881226 67 62 61
226.552444 640.259521 297.029755 124 118 117
114.269684 828.865234 164.087234 136 125 122
350.175659 602.538269 173.736908 63 56 51
323.195313 750.623291 148.525772 116 108 104
317.872711 715.962097 262.202057 33 34 36
260.938354 951.254150 173.850113 102 93 87
269.058716 824.958679 267.202484 92 84 80
259.933380 816.350159 295.178955 57 54 54
289.916473 773.645752 284.016266 76 67 60
351.456726 802.899353 273.632080 167 157 155
177.635361 57.019417 79.912987 69 65 63
185.472366 83.532997 132.701324 79 71 66
154.310455 199.132751 118.797150 111 106 105
118.415901 503.313568 190.991684 123 116 115
155.006622 289.687988 115.591286 81 77 75
132.875839 366.367310 125.530609 78 75 75
131.828995 308.191101 160.008255 82 72 63
175.507614 309.800903 191.519730 111 104 103
185.989868 291.330566 192.783234 101 96 95
216.869431 316.280457 150.047256 73 67 64
211.589371 303.193909 174.718124 59 57 56
226.965912 322.460968 135.449951 118 112 111
220.791916 377.120605 169.182983 102 100 102
247.631348 362.237488 198.923019 74 74 75
225.510880 423.013367 112.990509 80 74 70
153.131470 435.815796 211.773666 113 108 108
161.951965 482.314789 223.494202 125 119 120
187.551407 484.311279 253.653107 122 115 113
214.687576 376.850189 261.345490 114 108 107
229.978226 349.979492 273.143311 115 107 105
249.865601 396.402252 292.429749 134 128 128
348.003784 102.929947 207.644424 87 83 83
285.862579 232.726807 231.352386 74 69 67
322.860596 138.961075 208.146652 82 78 77
336.762665 175.848083 209.157043 108 105 105
325.589600 26.449963 313.463013 98 89 84
339.049042 36.031105 372.196289 174 160 154
355.995239 230.814102 262.971069 146 138 137
281.576843 367.134521 186.442810 103 100 100
318.463745 435.609131 279.338257 158 151 150
90.748413 709.272949 128.548676 88 85 86
105.141953 684.721558 143.449768 66 65 67
107.543358 666.149902 198.929718 65 62 62
167.665619 606.950134 88.887947 100 90 84
173.330109 616.468933 81.378983 92 85 80
202.100739 564.077026 36.953503 115 106 101
182.732010 524.992310 241.049759 143 137 139
197.870316 715.830383 48.379116 76 72 70
159.953156 732.465210 256.236755 80 75 75
101.192947 690.347900 270.377747 142 116 104
99.300980 698.949707 252.759796 155 125 112
218.760483 580.533691 364.151581 51 50 51
160.846390 684.110107 308.380493 132 121 119
170.462173 764.620300 264.777924 87 87 92
83.801445 810.272705 162.597977 153 144 143
120.426392 825.736633 177.552963 167 157 157
153.491501 875.729431 106.960266 68 69 79
171.620728 844.858765 195.892059 77 69 66
241.585678 870.659241 153.884705 108 100 99
170.628326 924.565247 192.045105 95 89 85
213.978989 771.269165 270.756256 85 74 70
302.203796 607.836609 196.471558 115 107 103
367.311157 594.461609 145.906448 99 86 75
354.401672 595.130249 187.762741 109 96 86
338.413330 675.699341 176.332260 124 115 110
300.110748 739.048340 308.733765 103 96 94
366.902893 739.312866 319.235382 119 112 110
315.283386 776.382935 374.676422 199 191 192
185.513199 10.860143 94.595131 86 81 80
166.281296 64.993523 108.548569 95 88 86
199.491272 2.983394 119.810883 76 71 70
152.587204 8.301663 189.760422 99 91 86
156.163651 37.359520 155.694824 97 86 80
230.574738 129.459015 76.990585 112 106 105
230.970535 153.313568 129.506119 109 104 103
118.079750 374.733673 181.698669 112 105 103
174.878510 263.084045 87.057854 115 108 104
158.873032 312.156067 189.686356 129 123 122
157.748505 462.921448 96.079048 122 118 119
164.036880 496.092072 85.899368 105 99 96
211.189972 413.084991 100.037514 115 110 110
215.723389 386.717224 186.251862 71 69 69
251.568878 299.802521 279.283997 122 116 116
217.564224 379.413269 267.650208 129 123 124
338.052460 234.473022 219.457840 114 108 107
311.498352 95.833015 268.717346 111 106 107
375.137573 39.259567 328.503540 138 124 115
314.710724 222.036697 299.878876 121 118 121
256.700989 263.110931 261.492889 76 68 63
258.032898 356.285004 304.263763 101 87 74
330.849609 314.309174 274.548737 92 84 79
335.230499 312.805939 261.195984 148 142 143
275.485779 444.021973 297.843445 153 144 142
297.939850 482.209595 276.371857 158 151 151
113.167137 528.253052 146.277817 137 133 134
67.065117 714.321899 104.792267 89 83 80
94.482895 752.209961 101.908096 116 111 112
50.508621 725.732849 183.172501 138 129 126
111.222420 658.733704 194.427231 81 76 75
159.660721 515.585388 62.878902 97 91 89
138.207809 526.375427 103.609062 102 100 101
220.900604 580.314026 84.732185 42 42 45
156.718140 616.853210 256.051331 51 50 50
182.124435 591.844666 244.930099 102 97 97
202.390457 687.785767 41.290558 129 123 122
246.127853 668.271362 75.966965 118 112 110
154.201721 654.781982 311.613464 71 69 69
239.726456 671.763733 354.179016 112 116 125
178.559769 817.585510 82.771873 79 75 74
175.872116 936.730835 184.299347 63 65 68
179.960175 992.631653 247.047806 176 177 185
222.760574 974.040466 156.285492 140 130 125
238.237183 827.433960 313.098206 114 109 110
227.292984 920.826599 258.511566 119 103 96
279.074677 562.839966 113.113617 117 113 115
300.062561 636.467896 148.025253 89 85 86
334.971558 571.298279 191.416183 91 83 77
360.876709 589.219727 161.541031 68 65 64
328.985138 584.302307 209.546799 103 95 90
329.315735 643.972107 138.107544 103 97 95
321.568024 707.120850 133.499084 95 88 83
332.565277 715.532776 145.416748 99 89 82
