ply
format ascii 1.0
element vertex 1075
property float x
property float y
property float z
property uchar red
property uchar green
property uchar blue
end_header
205.409546 676.655762 307.183136 57 54 53
197.314255 694.723511 316.505676 92 88 90
194.918152 693.087524 319.365448 71 72 76
209.437927 672.163818 301.985962 84 79 77
208.178177 704.007996 295.521271 126 118 116
210.827362 686.333435 303.707794 73 77 85
217.597504 690.988281 298.407257 93 86 84
236.302231 645.777954 277.676666 74 69 66
231.317902 642.810486 290.258057 65 58 53
232.413895 658.814392 283.344452 87 81 77
242.284760 665.943665 286.400696 75 69 66
238.875488 639.805298 276.328979 82 75 71
216.874405 644.577576 291.538513 121 114 114
230.415161 655.851135 296.470062 119 112 109
219.136230 661.953796 300.826721 86 80 76
244.293137 695.898376 278.154999 56 53 53
247.074326 703.634155 281.030731 55 52 51
225.683044 673.760315 297.009216 96 89 85
239.635208 671.381653 298.367310 82 76 73
236.804611 681.381775 303.989441 63 59 56
228.172653 699.143982 287.888153 103 97 95
227.871063 700.297424 303.982910 59 57 57
224.146057 690.456543 301.275055 131 122 118
236.352692 704.521667 303.922363 114 103 94
247.712372 681.949097 298.441437 51 50 51
248.736343 682.085022 301.726746 64 59 55
241.420609 695.249695 299.893280 69 64 61
243.420624 684.590088 288.088409 61 59 58
255.903488 702.107361 303.445770 77 72 70
246.218414 696.485596 316.298645 99 88 80
207.572433 654.385986 341.225372 69 69 73
195.455551 664.735718 340.769531 92 91 95
206.758530 669.393005 332.117493 71 72 77
208.628891 673.696594 341.667511 72 74 81
214.382599 652.605774 323.963104 90 87 89
220.232910 650.073547 329.554321 75 74 76
209.599976 643.415771 349.569733 88 87 90
212.968933 664.516541 353.582092 72 74 79
203.013351 679.588379 324.393494 103 102 107
226.785965 649.580566 324.426544 45 45 47
229.953613 644.316223 334.604218 60 63 68
228.357895 643.085938 353.982544 65 69 76
234.191772 647.936584 342.424774 48 49 53
234.444534 652.144470 337.119934 59 58 60
236.321640 651.080139 348.822540 48 52 57
227.140030 667.425842 329.486633 41 41 43
237.761490 660.037231 339.521515 54 54 57
241.522507 652.132874 349.404114 45 49 55
243.021423 665.137512 350.318848 97 102 112
227.046524 640.740112 365.774445 57 59 64
219.575211 639.123108 357.735565 49 52 57
228.988037 655.252686 355.997589 58 61 67
227.979889 653.590637 361.976227 36 40 46
230.253143 660.798340 362.112915 155 154 159
244.042206 660.603210 354.810669 74 77 84
223.668274 676.743835 334.598877 53 55 59
231.249634 675.123352 346.516174 41 41 45
232.482361 677.100037 350.677094 121 124 133
232.830338 672.228821 353.856995 136 136 143
202.910553 719.485046 270.467590 63 59 57
197.600708 738.719910 260.652466 81 77 77
210.347794 726.869690 271.643188 85 81 80
219.999924 728.887207 276.077148 76 71 69
200.528824 705.032410 315.167328 97 100 108
192.207855 724.714050 286.515442 92 89 91
216.714981 705.034363 298.610443 130 122 119
218.824097 724.300659 291.453674 140 132 130
197.933258 749.710632 265.860321 78 69 64
206.036331 750.933167 263.953461 120 111 108
210.929474 753.396362 261.824768 116 106 102
211.591522 761.889954 263.416382 101 92 87
220.792252 756.829956 272.849823 96 86 81
220.292587 729.064087 269.254150 101 92 87
231.196075 732.660706 273.318512 110 101 97
225.643814 718.238037 280.198456 84 79 78
238.680893 722.337769 276.952606 80 73 70
236.493073 733.271362 278.119232 79 72 68
238.872406 737.944397 280.154480 87 79 74
252.972946 708.837952 284.836243 93 84 79
258.558014 704.553894 279.703827 104 96 93
251.256683 705.919556 284.174225 94 85 81
254.204971 716.182861 279.965668 86 78 74
243.120438 726.138672 278.108124 99 89 84
250.230423 722.727600 285.820221 106 94 89
227.664291 712.243591 294.609192 110 103 102
233.243774 748.027039 278.669189 81 73 70
237.839005 740.798645 284.904022 99 88 83
231.672531 772.666992 273.516785 54 47 45
241.605286 762.228699 266.696411 71 67 66
229.799911 755.269165 272.755951 65 58 55
248.798737 747.834534 268.737305 62 57 53
241.353256 737.851257 285.722656 96 86 84
254.092209 735.489868 274.821655 59 55 53
247.184097 747.826172 274.241730 68 64 62
240.197311 750.554199 278.980255 61 59 59
252.710571 759.701233 278.911316 112 103 99
75.063042 784.284729 123.485596 119 114 114
79.502464 787.541199 126.932106 119 113 113
75.181641 796.347717 122.315109 131 125 125
88.067055 770.681885 109.662361 120 115 116
87.691925 775.079651 106.822197 93 87 86
88.534164 775.384033 107.075325 112 104 101
82.746140 778.613953 109.127014 124 119 119
87.347511 785.093994 108.990829 115 110 110
92.328674 793.007507 108.883888 121 116 117
83.588760 789.306213 114.224991 129 123 124
75.821762 790.273682 122.427689 127 121 121
77.071373 796.528320 115.332886 101 94 90
88.450119 805.459595 117.193504 125 117 114
90.941170 809.468811 114.780495 121 114 112
120.421066 770.960999 91.714027 114 109 108
115.059097 785.066223 92.341331 107 102 101
96.256256 775.904480 103.108299 108 103 102
105.676331 780.586060 94.569122 81 77 77
102.652214 790.965088 101.975121 107 102 102
100.282501 795.156616 103.761826 110 105 106
129.631104 811.787842 93.015083 125 119 118
103.394447 806.257813 96.519524 115 108 107
106.841156 800.346375 98.413765 106 100 99
95.125443 815.170837 116.099052 119 110 108
104.489731 812.272339 99.311424 113 103 98
108.038528 823.975281 118.938881 135 126 124
126.170944 816.677429 99.317978 137 130 129
122.541824 821.589966 102.240524 120 109 104
116.029358 828.052551 104.118744 113 103 96
105.992737 831.593933 120.743416 116 105 99
116.420105 834.188782 111.418976 121 112 109
119.647217 844.206177 117.864510 116 105 99
58.313530 771.658508 135.617630 90 87 88
53.896839 777.236572 135.384033 123 111 104
59.083736 772.776489 158.611130 142 134 132
55.984463 769.376099 149.398590 144 137 137
61.568005 771.133789 155.933929 143 135 133
59.731209 776.183411 148.852753 156 145 141
62.812580 777.425720 155.399109 142 134 132
65.280952 780.944641 136.234955 88 83 83
69.582191 782.629822 132.614441 85 78 82
69.417702 776.114075 150.446732 152 145 145
65.780624 783.586426 135.725098 132 117 108
64.384171 787.880493 145.890961 143 127 117
72.654419 789.780640 141.243530 144 133 129
74.136566 783.447388 159.187805 145 137 136
80.312088 781.722473 159.166641 156 147 145
80.804413 782.135681 167.226135 93 81 78
97.443047 771.050659 177.798050 91 80 72
85.493156 785.645569 177.291336 117 110 107
88.401024 792.937073 170.798859 109 97 95
79.183212 803.283508 147.089722 141 131 130
89.104248 822.289673 137.224976 122 111 107
76.977722 812.194336 147.587540 126 118 116
80.021400 804.831787 151.663574 152 143 142
84.403633 803.853516 157.438614 130 124 123
83.918625 819.623657 152.574829 126 115 111
84.116806 818.087097 138.284576 134 125 121
84.341118 824.346802 140.962280 138 129 127
85.277954 826.332581 133.965027 101 91 91
89.291176 823.346008 135.928268 152 143 143
90.022652 817.243774 151.264084 147 138 136
88.997742 821.755554 159.737350 134 126 125
91.140427 831.702942 148.086151 139 128 125
89.546188 801.576965 168.519058 123 113 110
89.246841 808.075562 177.715820 162 151 149
92.515587 819.600708 162.084229 125 114 110
93.476036 797.887756 177.653320 159 151 150
104.619667 786.994690 183.171997 131 123 122
110.586159 794.454529 189.263885 131 122 119
115.373863 769.338562 183.220367 133 121 116
107.565834 779.292236 185.940292 113 104 99
100.768410 818.434631 165.594666 116 102 93
102.743263 826.306458 164.883408 125 110 100
110.765610 823.537109 168.751572 131 121 118
119.413940 803.480469 188.493195 127 119 117
120.439445 800.721985 190.450699 162 153 151
113.123497 828.220276 173.559479 133 117 117
119.456841 787.204773 195.442398 160 150 148
122.829559 769.345276 204.626511 138 128 124
118.814545 775.615173 207.028915 87 80 80
118.453293 774.471130 201.115005 118 113 115
113.802589 770.437988 217.389603 109 100 96
123.945061 782.959595 209.369156 64 60 63
125.958961 775.459961 239.805847 95 96 102
124.771362 772.246826 225.996658 68 70 76
102.396614 839.356018 141.556122 143 131 127
109.352974 849.184937 148.679016 164 153 151
122.620735 839.926270 151.060989 124 113 108
103.286636 833.225586 159.459732 157 146 143
123.719688 837.564453 162.110794 133 122 117
179.264343 766.880188 61.659325 80 74 72
183.284973 777.325073 61.044987 107 99 95
185.862503 780.982910 57.880352 121 112 109
135.110870 781.244385 88.486588 89 85 85
143.890991 775.757263 83.103661 125 120 120
150.279724 794.196838 83.245750 109 103 103
140.546173 806.808472 90.020729 129 123 124
138.209335 822.584961 88.157898 117 111 112
148.413437 810.273071 91.761452 122 117 118
149.596603 817.032227 92.745575 123 118 119
149.780899 826.036621 90.250114 114 109 109
152.773987 816.707581 91.202934 94 90 90
164.514648 771.011414 78.359108 97 94 94
167.496902 771.614563 78.365746 95 90 90
161.216629 779.273865 81.125107 98 95 95
161.558121 779.120728 78.342896 94 90 90
170.060379 790.880554 78.791397 88 83 82
173.530701 776.234131 73.720428 85 80 78
183.543854 771.067261 66.146629 70 63 59
187.658157 793.004639 64.666931 96 90 89
188.813797 790.536316 77.067604 94 89 88
195.080521 793.141296 63.483521 72 67 66
165.594284 804.596802 79.025681 84 80 80
167.451035 817.752930 82.705048 70 67 68
174.002670 803.547424 86.990273 80 75 73
166.521988 831.516785 79.168251 41 44 50
168.874542 819.881592 80.688148 47 48 52
167.753418 828.590942 82.791916 39 42 47
188.886673 800.015808 63.608242 62 56 53
179.056122 829.072998 80.853493 44 45 49
152.201523 839.807922 90.285179 47 50 55
134.611938 829.945313 100.454063 149 142 142
131.515305 842.856567 120.249733 132 120 114
133.570663 847.301758 116.503647 138 128 124
146.394485 852.776855 115.010780 60 60 63
141.239487 835.444885 107.613464 114 109 108
150.206589 842.151978 105.081375 117 112 113
152.794662 845.963318 107.759995 77 74 75
151.296478 844.581543 97.203674 45 47 52
141.943100 848.279053 105.595894 131 126 126
146.282318 858.963501 97.438896 141 137 138
148.216827 862.495911 100.218071 157 152 153
139.773026 863.097351 126.726448 66 68 73
149.581116 869.580078 100.460052 60 59 67
142.747330 873.481506 120.040459 47 50 56
145.723373 876.859131 114.169365 66 69 76
143.719910 876.407593 123.319054 46 50 56
155.080917 869.610962 127.359703 57 57 61
166.634308 836.556763 80.789650 61 63 68
163.050110 848.286621 87.900757 79 77 78
162.353897 851.427246 90.438614 63 61 64
161.053192 853.900269 91.077354 46 49 57
165.993256 843.039551 84.346268 85 82 83
180.988480 840.211670 76.652069 49 53 60
186.965866 837.687317 76.725037 59 63 70
181.017899 839.997864 79.883179 37 39 43
190.241074 845.849915 91.690056 53 49 55
178.436020 847.547302 93.494789 75 75 79
161.522858 865.618103 98.540497 38 41 46
172.701126 862.833862 102.322304 140 133 131
187.899704 843.637207 93.057457 43 43 45
174.893829 866.727112 108.833397 187 176 173
161.260101 874.269897 116.465958 89 86 95
167.462418 867.382813 127.468117 65 50 62
204.302551 769.036499 50.296227 143 131 125
200.517395 788.968506 58.084354 128 122 121
205.587433 801.121155 57.998306 130 124 123
216.381668 767.865540 52.190254 129 118 111
209.453262 771.589355 57.375782 89 83 81
213.212662 776.284729 61.694256 99 92 88
217.329041 798.976868 69.415596 113 106 103
213.761414 777.450378 67.748955 82 76 73
216.125824 799.715027 65.003090 59 57 59
212.882568 798.352661 72.404457 115 107 105
221.052826 785.746887 71.867943 67 61 55
190.713654 805.947021 75.445045 102 90 85
201.942551 816.954346 78.959244 95 89 87
201.798401 819.064880 76.602264 63 61 60
195.930237 826.327087 92.449089 126 118 114
204.514435 829.255737 87.174919 117 106 99
212.771469 810.737976 69.253731 120 113 110
216.359177 812.690796 71.921837 128 116 108
221.647430 805.502869 82.833847 109 101 97
217.463730 810.580444 80.066010 58 56 56
213.780624 821.105164 86.026428 88 77 69
244.791824 775.470642 83.792450 87 81 79
229.220245 791.118469 78.788116 105 101 102
239.288132 781.311279 79.247131 118 113 112
243.959061 774.999573 82.738182 102 96 93
247.213821 795.948975 88.091110 108 101 98
233.114197 810.994751 91.745605 87 81 78
235.508347 807.045471 83.282051 82 76 76
248.601837 804.111572 89.248695 124 118 117
231.463318 807.754578 89.851219 67 64 64
230.249680 821.478943 97.595032 146 135 130
240.736069 816.821655 93.648125 148 139 136
250.677261 807.023438 93.276855 103 96 93
229.184769 831.696167 112.356567 133 123 119
245.629166 820.349304 107.175354 93 82 78
248.911957 823.774231 110.952141 127 116 112
249.875610 828.598389 122.437424 121 113 110
196.667160 834.723022 96.948051 60 55 56
190.522812 841.212585 95.591393 163 155 154
198.241974 829.561768 98.068748 80 72 68
205.742340 836.379700 101.021278 127 113 107
188.359161 845.451477 101.834824 104 94 96
211.972733 837.548645 112.165230 150 139 134
212.190155 840.553345 118.265808 146 135 131
211.183228 845.469421 120.017708 157 148 146
220.189789 842.756531 121.743462 156 146 144
236.379395 843.770996 127.633812 154 146 145
134.607376 829.729126 176.537689 143 133 130
138.624039 822.090881 184.220016 124 116 114
136.479843 782.393494 220.398376 77 73 73
131.243011 784.884827 199.349365 169 157 154
132.451233 798.010376 200.723343 131 122 120
134.897354 784.015747 225.245255 48 47 49
137.553711 789.574829 218.437546 102 94 91
137.523361 800.501160 213.946381 95 92 94
141.014816 791.658569 225.175507 132 119 114
138.281555 799.490967 217.715149 117 107 104
123.049576 781.785950 226.403458 65 68 73
133.359680 778.232727 246.834778 104 105 110
146.176804 774.943359 249.047165 86 89 95
137.091019 789.027283 225.305679 70 72 78
142.884491 768.881958 249.721375 90 93 100
143.049408 768.373291 257.727234 93 95 101
152.435410 777.555969 251.084961 69 69 73
154.620392 795.309753 229.718948 138 128 125
155.563583 796.980835 239.076309 117 111 111
150.510086 796.134033 249.409897 53 61 71
140.608185 802.193481 203.411545 88 83 82
136.880203 816.978699 218.309448 69 72 80
137.464798 812.788086 213.182648 67 69 75
141.821121 813.465088 204.957336 135 127 125
139.823242 823.368042 203.063126 146 136 133
143.533051 831.483459 197.770432 167 158 156
147.868271 803.641235 219.208832 161 152 149
150.700363 801.144165 219.248291 123 113 109
146.671173 803.623291 213.675827 98 93 93
150.596542 813.422180 217.172821 146 135 130
145.112289 818.835571 208.713181 118 108 105
154.533813 820.505432 210.763504 150 140 138
152.887283 799.672546 229.144928 147 137 133
148.073868 802.658142 253.855179 96 99 106
171.517548 793.068359 232.466660 125 120 121
175.773636 789.268982 246.969513 70 66 65
175.571655 789.443604 249.141342 79 80 85
172.582062 794.449646 237.749451 88 84 83
181.922913 786.704834 245.656494 86 81 80
177.704880 795.335632 241.818085 92 87 86
190.960968 788.416809 248.761459 113 105 102
190.815033 791.793640 252.173279 114 106 102
184.506866 798.410095 250.385300 109 102 99
188.797150 799.732483 256.208374 93 83 78
162.404312 811.474304 212.237610 151 140 136
159.342682 818.632874 225.252945 104 93 88
166.382690 825.493225 210.885147 144 129 119
164.763306 828.573120 211.255463 143 133 131
169.384796 826.673706 212.668762 87 76 74
164.796738 803.093567 230.703400 143 133 131
171.609680 800.418457 231.908112 135 127 126
167.762054 807.080505 246.847382 79 82 90
165.096130 808.148804 238.134293 71 73 78
174.455963 800.255188 246.649429 77 77 81
165.567291 805.096802 256.076477 96 99 108
179.757690 806.402893 224.587082 87 77 77
180.237213 811.586609 229.144775 95 86 82
183.059738 802.488037 237.892151 99 88 84
184.600266 810.021362 242.822906 129 116 110
185.826202 818.179565 232.154373 125 113 107
126.579407 845.890991 132.688660 98 90 89
124.131676 847.934387 154.287338 90 81 76
134.289734 859.349731 141.462494 115 107 104
139.828568 858.282776 135.181061 75 69 69
136.069534 861.312561 131.508804 92 85 83
132.035980 851.663269 148.180161 88 79 75
129.891357 838.611816 161.124390 117 102 101
136.494461 849.706238 176.372726 149 139 136
129.771210 833.281982 193.269058 123 111 104
140.150192 837.761108 189.052246 147 133 125
133.022110 846.766113 172.291382 165 154 151
136.049774 846.537231 176.657761 166 156 153
142.835251 859.852844 164.981400 168 155 150
135.210571 855.732117 178.609055 174 161 156
146.464813 843.787842 182.849380 125 109 102
145.045868 859.992920 160.374603 179 166 162
142.830124 858.842163 179.355011 174 161 157
146.446182 851.214355 189.978271 140 128 122
144.664276 855.684814 180.675797 168 155 150
153.533859 853.988281 187.902695 128 114 106
160.501709 859.287781 181.074478 153 139 134
132.901367 867.913574 146.949448 150 139 134
133.096085 872.707581 138.702408 57 59 63
137.208984 870.402527 132.685730 63 65 71
141.388611 872.222656 129.001984 70 73 79
134.784378 864.164612 148.575104 123 112 105
141.323883 880.375000 126.776573 53 54 59
145.540039 874.953308 131.836380 69 72 78
148.608841 869.946533 157.662186 142 128 119
151.723480 871.684814 161.858749 162 149 142
136.192322 862.864929 156.779510 156 140 135
170.249023 862.896912 188.189362 114 102 96
178.715591 867.954285 139.145615 63 53 57
162.308640 872.529724 146.963547 185 173 173
170.355118 873.355896 145.511887 156 143 138
180.003067 874.654236 136.029816 141 123 121
176.762024 879.333923 156.317581 101 84 89
186.173141 872.167053 150.136795 129 115 108
159.416199 869.775330 167.610504 146 135 130
169.435089 868.604004 161.489761 137 126 123
177.270584 881.092651 160.622269 138 121 116
175.493408 876.174927 176.820175 115 105 100
183.431503 881.869446 160.605759 128 117 112
177.098785 881.350281 168.383148 124 112 107
175.059158 884.643433 177.765121 116 106 101
179.517334 890.223083 183.244461 133 103 98
138.225449 833.502258 190.129059 123 112 107
138.080124 834.529846 194.143829 93 84 81
147.783051 842.369385 191.653122 144 129 120
152.348251 835.410645 201.256760 155 145 143
157.904984 841.202087 197.885895 143 133 130
167.308411 839.121338 194.585052 101 91 85
164.165985 850.737183 195.764572 96 85 78
177.568054 836.868164 212.751282 115 103 97
180.685837 831.660034 218.111206 118 106 100
181.578812 841.719849 213.703629 120 107 100
179.647949 851.895630 210.113312 100 85 78
195.354263 831.578430 233.500977 122 110 103
183.377228 865.752380 197.293930 134 98 94
183.942200 871.583496 202.270554 135 105 99
185.659988 870.078735 216.548767 129 107 100
181.258484 892.993225 201.586334 134 105 100
183.850555 884.213135 213.437714 128 105 94
188.664978 895.183533 231.074203 107 93 83
195.140976 789.380676 255.382965 115 106 102
186.454407 794.558228 254.543976 126 114 106
196.121841 795.436157 250.805878 121 109 102
204.181030 798.954956 248.403778 103 93 87
203.360260 807.206360 244.437256 117 106 101
202.436600 818.019653 244.352722 50 45 43
201.557693 807.442871 243.221069 57 53 51
199.580811 828.058350 228.465424 53 42 40
210.508698 821.917358 234.746002 100 93 91
224.043060 812.410706 239.267120 107 98 94
210.325089 821.675720 235.356445 95 87 84
219.155365 823.135803 227.406647 93 86 82
217.119385 826.784546 255.878235 44 47 51
248.231491 793.517944 255.710510 71 63 58
229.969666 800.708801 250.126602 120 113 111
222.025635 817.920593 237.853210 93 87 86
229.557816 824.430298 245.635803 53 50 50
245.045227 832.701965 255.605560 44 45 49
245.210495 803.655884 248.219940 63 56 54
238.922180 809.269348 245.746292 75 71 71
252.340393 810.784424 250.607285 57 54 54
200.403259 861.010071 136.085129 172 160 157
217.560349 860.781311 139.254379 167 157 155
203.278244 862.511902 143.940445 165 154 152
195.629333 884.600830 154.605515 123 113 108
189.870026 889.594788 159.804123 113 100 97
204.206146 886.528625 157.628906 118 91 91
221.024704 871.545593 150.624939 130 119 115
218.292252 876.161072 148.557907 130 120 116
214.213699 882.986816 149.905243 130 119 114
213.201920 885.023743 154.172043 116 93 91
202.696198 888.812256 163.990814 108 85 82
209.264404 893.554016 164.061554 107 85 79
206.090836 900.500122 165.361816 104 84 78
216.340683 888.170776 159.584396 119 92 88
242.790543 846.590149 136.932449 147 140 139
251.001846 856.187622 131.313782 137 126 123
220.497208 880.587646 151.118011 129 119 115
224.065079 881.186340 163.751724 119 92 86
243.515793 870.531128 153.626099 134 122 115
244.001266 876.131897 153.706512 121 115 114
251.806442 863.290833 162.069733 148 138 134
236.147263 881.102722 161.398666 126 95 96
251.586685 882.342285 179.807877 136 104 100
238.833389 882.820679 170.795547 121 92 90
244.983658 880.387634 176.165314 135 105 106
245.830063 888.746643 179.217148 111 80 77
248.738617 875.408081 184.677246 93 62 58
188.644043 840.959717 214.788467 101 79 74
192.886139 847.316284 213.419678 107 81 75
205.052399 837.505981 217.323441 103 76 72
196.063843 855.242615 217.535812 118 85 82
210.931000 838.397766 222.234772 130 93 90
216.269608 839.500549 226.376648 115 79 75
216.190430 865.043335 215.483002 70 60 55
204.712753 829.959839 253.071152 67 65 67
224.886734 839.425903 218.938232 87 71 66
222.048355 846.192871 234.913040 70 64 61
218.801575 849.078796 232.478699 88 82 81
215.574005 856.219788 244.376511 57 55 57
203.942093 872.187073 233.834717 98 86 78
200.005447 881.195618 246.737335 103 95 91
203.384140 876.833557 239.129120 103 96 93
200.430130 883.692810 244.725815 94 85 79
216.983459 862.818237 231.599121 60 54 50
213.796539 869.960571 244.514862 106 98 95
210.067352 869.746399 247.873840 90 82 78
221.033722 867.315002 250.062317 82 75 72
211.849335 892.789246 248.830063 134 119 109
225.212769 857.489807 229.547791 52 45 43
253.756561 860.770386 243.842926 54 54 57
242.246582 869.247681 215.367432 49 42 38
246.685104 865.038025 220.927536 107 82 79
248.219849 864.087585 221.135254 105 91 90
249.256454 880.829712 210.741638 95 73 65
248.005585 878.181763 211.898163 81 67 59
247.055786 874.879639 220.740128 63 54 48
252.707275 873.504272 212.660629 128 97 88
242.602509 883.880859 200.194077 138 113 107
241.167053 882.685730 213.544937 51 46 42
252.462479 892.173157 206.433044 67 62 58
248.533600 890.120911 214.406479 75 69 65
252.065628 899.678162 214.517044 74 64 55
222.067139 868.843689 247.663544 107 100 97
224.653442 878.830078 246.020203 134 99 105
232.473969 872.812439 234.350937 109 86 83
230.396591 883.844604 250.080673 84 68 68
224.890930 883.252319 252.170410 105 84 85
240.115326 886.606689 244.165680 69 52 53
246.077209 867.969604 254.352112 97 90 87
255.657700 877.680176 231.678085 114 100 88
246.850723 893.191956 232.357819 112 90 74
154.884415 941.689941 184.186447 103 99 100
160.352188 946.377625 177.208542 128 119 116
155.518799 946.738342 190.062408 111 106 105
149.324417 949.061157 192.557846 122 117 116
162.606873 961.559814 186.492523 115 108 106
180.507584 904.199890 184.530075 132 110 102
182.047989 900.339172 180.251160 138 115 110
182.833740 913.968811 176.979691 119 103 97
196.681488 912.051270 174.170639 92 81 73
177.662750 919.986389 185.341187 66 66 71
184.759476 913.947693 173.929932 105 90 84
190.662857 926.083557 179.444931 62 60 59
183.678925 953.857117 152.476578 124 117 114
166.022461 948.913574 187.647217 68 67 69
175.433975 928.229187 185.619888 76 73 72
175.358597 940.220764 176.212616 45 47 51
164.845016 954.519287 172.574371 153 142 137
166.263565 947.905823 172.118500 132 123 120
174.027328 958.203796 164.189590 100 91 85
157.172348 949.717285 175.651077 138 128 124
166.457138 952.255920 178.513077 132 122 117
178.783081 932.032349 179.386597 56 56 59
173.185699 933.373596 184.516357 66 65 68
180.143555 946.930542 157.107269 119 112 109
154.181946 942.667969 197.161362 115 107 104
154.819107 944.833740 207.768829 121 112 107
150.874954 950.417664 208.047073 134 124 119
145.576813 960.824707 199.024109 115 104 99
160.125626 952.053223 216.544815 122 112 106
180.783279 915.014954 204.259857 96 90 88
175.999573 900.598083 205.122696 84 69 66
180.879883 911.126404 192.264084 103 90 83
176.001678 908.230835 209.970306 118 102 94
178.664719 917.867676 223.250626 131 110 103
183.387726 921.992798 215.595291 102 91 84
179.604141 912.025269 222.807938 123 104 94
179.473907 901.476135 237.753967 131 110 101
188.322067 900.353638 237.064255 127 111 101
193.321716 904.141052 248.717087 128 114 105
179.773438 916.262634 227.996445 137 113 104
187.254654 906.019104 234.248596 141 116 106
187.358749 923.824219 236.199432 141 119 103
171.642517 944.120239 196.135925 65 62 62
162.471359 939.946106 204.076843 64 61 60
170.547180 926.948730 192.785690 62 56 54
168.501144 942.901123 200.679443 42 42 42
173.781250 944.118164 202.985687 46 44 44
163.726563 943.826111 207.724594 57 55 55
168.328552 944.940918 213.083939 50 48 48
167.479858 943.724243 219.584656 64 56 54
174.103348 927.579895 197.353790 83 74 68
179.143219 931.212280 208.132050 93 82 76
168.007614 939.208252 223.310120 128 95 89
160.356308 959.439270 225.488312 87 83 81
163.894226 956.481812 229.763000 35 35 40
161.960999 958.084351 233.587234 97 92 90
168.341385 963.889038 239.438538 106 100 98
168.225266 947.414490 226.672882 128 87 83
170.343597 951.045471 240.344345 75 73 73
166.856049 947.595764 246.921661 97 91 88
172.179932 940.730652 236.272720 120 100 86
177.338959 943.160889 244.031403 79 69 63
186.997482 934.581116 240.455582 111 90 79
188.415039 928.928650 252.920868 127 108 103
157.672867 964.192505 183.759018 137 128 125
159.664047 957.031128 177.447556 139 129 124
162.445129 958.271362 186.998581 140 129 125
162.128937 971.012695 181.713730 145 135 131
167.737839 969.534790 173.434631 146 135 130
175.992065 981.223572 179.299194 156 145 141
187.517517 970.277832 158.446121 110 101 95
185.619736 970.419373 164.075531 85 78 72
180.203964 980.460388 172.088074 147 137 132
190.880890 983.138611 164.922134 135 125 120
183.372391 997.574707 182.770889 161 149 143
178.155716 990.044800 184.699951 165 153 147
183.350449 995.722656 183.552444 170 157 151
180.566238 1003.176086 183.289246 169 156 149
190.875580 1007.348022 185.809311 150 137 130
155.390396 969.628296 209.980270 119 109 105
158.729706 963.973267 235.535141 100 94 92
159.642090 970.875610 232.350922 147 136 131
155.308456 974.270081 235.406693 119 105 103
163.990906 981.927368 200.755280 159 148 144
164.222275 991.670471 214.085205 159 147 141
163.444611 993.020020 225.457825 159 146 140
163.147202 969.376160 234.444031 113 105 103
166.465378 967.711304 251.575104 137 125 119
164.201752 959.464844 249.143204 136 125 120
164.604263 965.615234 247.979340 129 120 115
163.402588 963.421509 238.687439 137 126 121
158.192810 973.536316 241.425354 116 106 102
169.371628 974.623962 249.834930 67 50 65
174.906464 991.757019 244.218491 166 169 181
174.245590 986.888123 249.920990 84 91 116
169.929977 993.309448 206.884232 161 150 145
173.663589 995.699219 219.313461 169 157 153
177.436981 1000.917786 211.556839 175 163 158
176.846512 1002.291809 219.393509 173 160 154
177.844711 1007.533081 224.559570 180 166 159
188.067169 1008.440491 215.977463 186 172 166
183.386185 1009.102783 227.075409 188 173 165
174.205643 991.511841 225.117508 162 150 146
178.208847 998.365723 236.751099 106 101 110
172.052582 997.548218 224.660400 167 155 150
177.342453 998.045044 234.232773 145 136 134
178.617889 1006.437500 235.422119 178 164 157
184.671021 1005.976990 235.290497 122 121 135
183.196884 1002.720337 240.838043 143 140 146
185.447342 1007.887695 243.529297 142 131 127
186.023407 1006.703735 226.181503 183 168 161
184.312759 1006.338806 234.630707 190 174 166
210.931152 899.186707 164.457443 102 83 78
206.998840 928.731873 170.654388 51 52 54
213.943634 895.971069 166.396118 92 76 71
212.349594 909.288513 166.732071 82 73 67
216.807434 927.904236 168.932892 49 49 52
208.998581 944.797302 149.401688 100 95 94
204.033493 954.238525 150.347443 82 76 73
222.155518 941.389709 148.026352 59 56 56
228.353836 961.084900 152.699738 131 122 117
195.925018 931.839905 171.267776 44 47 51
202.153641 933.252991 175.153778 39 43 48
199.787201 936.792603 165.828339 43 46 51
202.791443 933.747620 172.964523 41 43 47
200.581284 930.974670 163.431274 53 52 54
206.979034 940.435242 163.382217 61 60 62
193.207428 948.783081 163.851074 55 56 58
209.849518 935.240540 166.520279 56 55 55
234.595398 908.831726 177.693893 95 81 71
227.010620 904.365417 178.551468 81 71 65
235.723999 902.122681 175.580200 83 72 63
223.456665 927.652588 161.556137 54 52 52
237.558517 914.766602 179.146866 54 51 51
241.139221 893.529236 179.993027 84 72 62
248.993622 912.568054 185.021576 92 83 77
234.471710 924.108398 173.204193 55 50 46
249.688461 921.562500 185.825806 59 53 51
253.638397 924.890442 187.758575 66 56 50
229.294785 935.220276 147.692871 82 79 79
231.136292 935.592346 153.948883 85 81 81
235.195892 944.019836 160.687744 40 42 46
230.734100 949.805847 150.240738 123 114 110
237.269348 954.832336 150.259674 108 102 99
246.108124 942.968262 150.088486 92 87 86
245.504181 959.655518 152.334717 108 101 98
256.848114 952.298279 151.596283 114 104 99
255.812820 959.554260 164.647720 83 75 70
248.284912 960.286804 153.007339 119 111 107
223.193619 931.631042 165.145645 53 51 52
233.752258 935.971802 160.691055 35 37 43
234.961227 933.839539 165.397888 41 42 45
256.238922 937.763062 170.694122 41 39 40
256.179504 936.462097 181.635727 65 51 51
250.916748 930.306580 187.762848 102 80 71
251.945496 939.777222 167.979980 55 51 50
249.010239 953.487427 159.777176 117 107 99
192.213379 893.749878 246.782227 100 91 85
192.779236 901.565430 249.516083 97 88 82
251.715912 903.524902 197.518661 86 78 72
254.155426 894.549683 211.213303 80 69 60
250.158325 908.613342 207.227951 77 66 57
253.306763 905.401184 203.999039 88 76 66
251.170013 891.984680 248.197357 96 75 72
249.523514 907.959656 250.819229 134 112 98
248.588898 896.235657 243.804138 132 110 96
254.008011 928.101074 258.380951 48 45 45
197.724976 957.959656 154.618576 96 87 82
202.330429 979.621094 161.099472 92 85 82
202.706329 978.995300 154.473160 99 90 85
223.825409 960.621948 151.558899 134 124 120
192.288391 980.011047 167.292450 144 134 130
189.953461 986.947388 167.219208 138 131 130
209.720001 987.414673 159.199585 154 144 140
215.161407 985.027771 163.216919 157 146 142
210.406723 994.509033 165.287964 142 131 126
195.095016 994.090027 160.960083 93 89 89
207.758804 1002.946045 169.576324 99 98 103
200.058212 1011.177429 175.624084 85 78 89
195.344925 1012.268555 178.448715 104 98 96
197.758728 1018.245850 182.148651 106 104 108
194.371613 1016.114807 187.074097 133 120 112
202.769302 1008.441101 186.040894 138 129 126
200.991669 1013.917969 184.721512 182 177 181
219.826172 999.257568 170.343826 184 169 162
219.520905 1008.722290 184.000534 126 113 103
233.159454 961.823547 147.184662 132 123 118
233.669662 968.067871 156.869797 125 116 112
227.730576 983.488037 158.003784 146 138 135
228.531998 981.772583 155.630737 141 132 128
237.022583 978.929626 158.801971 137 128 123
251.332520 972.737915 164.228653 142 131 125
251.371750 983.915771 174.176865 139 127 120
253.798950 988.794983 168.876053 143 130 123
229.697205 1003.179749 177.403137 184 170 164
231.049667 990.887573 161.222427 163 152 149
238.632645 988.890076 162.682587 159 148 145
236.267517 1004.651672 185.434860 190 175 167
234.942993 1001.892212 175.612427 184 170 163
239.319885 1004.077637 174.936340 169 161 161
229.325760 1014.752319 190.262650 201 185 177
241.984039 1001.082886 182.512711 180 166 159
245.634308 1004.650085 190.188278 185 172 167
251.126801 998.411438 182.290054 161 147 138
256.923187 994.163452 182.818665 151 138 131
255.073608 994.563538 188.955215 172 157 149
253.846222 1003.800232 192.441010 178 164 157
201.964218 1021.680237 195.661789 147 135 128
195.672928 1020.760071 201.081863 187 168 157
208.726990 1021.470032 214.194504 179 157 143
203.215912 1011.943787 222.890518 201 186 180
215.073669 1016.500793 222.597397 198 185 181
200.098526 1017.639648 224.132782 198 183 178
204.338974 1014.169861 220.588135 207 193 189
204.322006 1011.907959 228.891449 189 176 171
194.081451 1010.227051 249.283981 185 171 166
203.333679 1011.211304 246.059433 188 174 168
221.322205 1014.244751 237.350967 210 194 187
210.127731 1009.834839 247.085098 203 186 178
217.307220 1008.817505 253.492630 204 188 180
221.712936 1008.922119 250.925446 207 190 181
222.241272 1017.173401 203.306564 202 184 175
234.060364 1012.865295 211.082352 210 192 183
227.844635 1025.625854 217.198334 219 201 191
236.232544 1011.445068 221.106537 216 198 188
243.435303 1009.546326 194.751740 194 180 173
249.357224 1007.879456 200.345062 188 173 166
261.886505 1004.850342 207.025299 185 169 159
241.857880 1001.990723 256.199951 209 191 181
234.129242 1015.765564 238.954880 204 192 189
224.473907 1009.375793 255.619324 203 185 175
251.111969 1001.630127 243.441849 204 186 176
244.730728 999.847534 252.485092 186 173 167
150.521591 780.604248 262.285431 70 72 77
159.959381 783.342957 265.207825 81 84 92
155.744736 801.621094 254.287338 120 123 131
158.765564 771.841858 271.587860 72 74 80
157.365067 784.444458 262.870941 101 104 112
170.770691 793.308594 259.851135 95 99 108
180.384186 769.563416 264.447968 87 85 87
175.032547 778.347778 257.233521 83 80 80
177.468582 765.810913 271.549957 125 125 130
197.943237 769.116943 256.216827 114 103 97
205.375031 771.853882 262.866943 108 100 96
200.696426 792.554932 253.870300 109 98 92
206.068451 776.272095 272.678223 109 100 95
220.979584 773.897583 273.753632 101 88 82
213.216980 779.327881 259.662018 122 110 104
217.208099 829.887268 289.947784 122 114 111
231.134537 771.489380 267.888336 93 82 74
235.461609 799.160095 255.772720 73 65 60
245.101257 772.059998 270.333862 104 96 93
255.803528 774.428650 257.260895 74 65 60
248.008865 783.772339 260.120972 74 65 59
255.626572 797.934204 310.141388 47 48 52
231.224045 821.289978 256.914764 53 52 53
226.940536 824.672913 261.443542 51 53 56
236.560760 821.562927 255.528214 62 60 61
235.820557 835.196716 265.866180 41 43 46
225.823578 825.780762 277.836060 47 47 50
234.482330 830.182190 282.400391 57 57 59
242.673157 823.872620 259.218781 39 41 44
242.744324 825.801819 264.242065 41 41 44
235.226349 827.237244 299.784515 134 129 130
233.722397 813.212891 304.559662 69 71 75
236.894257 827.698486 302.487000 154 150 155
239.945511 811.225647 302.687927 72 70 70
248.071884 811.511414 300.394073 56 54 55
253.045334 817.964172 320.733459 186 164 154
257.225006 798.505554 321.195892 41 44 48
256.549316 796.386169 323.131409 46 49 53
209.203979 832.928894 272.861664 46 48 51
220.739899 832.453552 260.883057 37 38 41
213.035217 839.790894 273.057312 75 70 67
211.798309 846.615479 277.326202 123 113 108
218.723495 833.682861 279.881744 96 88 84
219.042496 848.502197 284.846710 123 113 110
223.027832 853.851990 257.118744 73 66 64
237.624756 849.055176 285.687805 160 149 147
243.520294 854.200317 276.780518 105 94 91
240.288742 849.531372 285.206055 175 165 164
238.761261 851.680176 277.392365 112 96 92
245.992035 857.034668 275.315613 126 112 105
240.518158 852.547302 282.622772 175 164 160
252.331711 853.277344 282.857117 89 78 78
248.731476 857.176025 272.174042 130 116 108
237.411224 836.605957 295.349548 158 148 146
228.229462 834.516296 297.172089 164 156 156
222.185349 833.768311 295.441620 162 151 148
224.149246 845.098633 289.037689 167 157 155
236.014709 847.343262 292.298096 110 96 99
254.342072 836.842529 299.690582 145 142 145
238.260773 836.147949 307.614960 148 143 147
241.977234 833.583252 311.835602 119 114 115
239.389359 868.122986 265.316223 71 74 80
235.451141 861.756042 273.169403 61 63 69
234.975861 864.373596 269.456787 109 99 96
220.610535 892.564819 257.284149 136 120 116
245.662064 865.741150 257.200531 95 95 102
240.804718 870.737427 267.553253 62 62 67
253.239777 868.239990 258.521484 118 108 103
179.345673 946.214600 257.060120 58 57 59
184.571808 937.481384 261.336182 96 87 81
190.436844 938.707886 267.495758 89 83 80
194.352371 945.210571 273.571411 74 72 72
176.899429 950.057739 274.467834 126 116 111
173.086868 959.659912 271.049713 137 126 121
171.395004 958.965210 250.539093 139 127 122
168.807098 962.502808 263.644531 120 108 102
167.441864 971.214783 261.610046 144 132 126
170.277267 970.169373 267.021729 152 153 161
176.257813 975.315918 265.674835 102 92 110
178.901291 983.732117 259.619751 139 147 162
181.223923 983.138794 261.767578 145 152 165
179.497131 988.081177 262.762146 73 70 90
189.666153 980.361023 266.809509 83 73 89
184.791824 991.121399 263.221313 87 92 103
194.104462 993.823608 267.236938 106 108 118
208.348450 912.243164 260.240936 133 115 101
195.787003 919.135010 266.314911 109 99 92
223.659515 906.369263 264.376038 162 140 129
199.730865 928.275940 260.216461 120 104 97
197.575775 934.335388 261.075745 118 102 94
201.031631 954.605225 283.884125 156 143 136
204.565140 955.426636 287.871460 151 141 137
215.704803 929.207947 267.843567 78 71 67
206.107697 933.411194 274.235107 43 43 46
217.903152 929.371826 279.188049 69 64 62
214.463943 935.210938 285.228668 45 43 44
224.148743 933.751343 275.817261 45 44 45
207.268524 943.951721 284.347260 109 108 113
210.006851 946.396362 291.574188 158 145 140
215.081711 944.415405 289.877380 110 109 113
218.606720 938.545227 289.485535 98 93 92
209.261032 950.255005 289.928650 159 146 140
227.023270 952.722290 293.154053 161 148 141
237.808548 905.349976 264.264282 163 133 127
232.813797 908.626343 256.870850 157 131 121
232.821991 923.751404 263.184204 118 106 99
240.293961 906.094238 257.915558 128 104 94
242.997833 919.384460 261.622711 97 85 75
234.407837 924.876587 272.462708 60 55 55
241.902649 929.353882 283.246002 78 76 76
249.984421 932.131714 285.012970 128 123 123
230.271332 934.603333 292.419952 137 129 127
225.181442 940.740662 298.048523 124 114 109
231.011002 951.742371 293.673676 122 113 108
235.449081 943.283203 298.624542 117 109 105
240.344894 932.716064 290.911438 140 131 127
239.370300 946.922363 306.745300 84 82 84
245.104889 938.489746 289.183380 91 86 84
237.804489 946.405090 302.723755 112 106 105
242.180954 952.472839 302.108093 106 99 103
239.013123 942.360046 306.275024 149 149 156
241.386673 957.213806 308.997681 131 123 122
194.424988 960.739685 277.070923 157 144 137
198.815689 956.160095 280.113190 119 112 110
192.369690 984.988403 272.883942 103 104 110
197.786301 976.937744 270.463501 175 160 153
195.944336 993.771362 277.381439 140 128 121
201.261765 982.099182 275.277832 179 165 158
217.416885 973.660889 296.674133 172 158 151
207.998657 984.838196 284.203033 185 170 162
216.620972 974.198547 289.180206 183 168 161
204.696228 957.961731 288.546082 167 154 147
213.294830 995.265015 271.125397 197 180 171
214.222885 1005.332764 263.131836 202 186 178
222.294800 1003.577148 258.929230 197 183 178
220.185120 993.127075 267.064819 196 183 178
214.710052 991.190491 278.684784 194 177 169
226.784149 996.396667 280.065491 197 179 170
222.477203 989.283875 280.265106 189 173 165
238.115753 989.286133 280.224121 190 172 162
232.794250 986.087158 276.580170 184 170 162
241.478958 983.461487 281.889404 148 133 123
241.681198 985.768982 282.227844 159 143 131
258.373535 986.486694 285.712646 130 117 109
230.762100 971.595276 289.896149 167 153 147
232.935959 969.451782 289.135040 165 150 142
241.414139 974.410339 288.131683 188 172 164
246.204285 963.348572 297.576416 145 143 147
243.995117 976.322083 292.690308 127 102 99
256.053619 962.993713 309.474182 222 223 236
250.839645 971.378235 304.033783 185 178 185
244.148605 974.789795 287.554810 178 161 151
250.556824 978.407776 288.934479 164 152 147
254.703613 981.410034 296.186371 149 138 135
223.047989 1002.411560 259.795837 201 184 174
232.605515 1001.746033 259.267517 198 181 171
238.851395 999.819702 266.355743 201 183 172
239.659424 1006.364502 255.311325 201 183 173
230.338287 993.744934 280.446411 187 169 158
237.724915 999.557129 268.355255 193 175 165
235.673065 1001.119263 257.941406 205 187 176
249.352676 993.320679 255.645874 178 165 159
250.814423 994.770020 283.240326 199 183 174
265.777954 524.440979 107.845764 141 136 137
273.683990 527.477905 105.512360 97 85 76
271.648712 514.354309 106.730209 120 114 114
290.194397 539.199219 116.314713 101 87 75
258.656921 566.212646 96.664474 103 98 97
270.159210 566.981140 107.895821 88 87 89
271.278687 556.313599 106.009636 102 88 76
284.616028 560.432312 114.138016 130 123 120
293.619537 524.109131 124.283119 112 105 102
292.616577 533.537048 121.628891 101 87 74
290.880615 559.341492 119.334435 128 123 122
294.019531 560.790649 123.490166 81 77 76
262.767517 582.227661 101.126678 105 102 104
256.955292 580.210876 106.623337 89 87 89
258.346680 582.080811 106.785767 84 81 82
258.731140 592.415344 112.398178 88 83 81
265.881561 573.510742 108.869644 89 85 84
268.164063 588.673767 111.150597 78 74 73
275.755890 595.522827 100.744476 68 69 73
264.470795 595.727844 103.033356 91 85 83
255.396545 605.046875 99.663513 84 78 77
274.071259 592.789551 101.749184 75 72 72
276.550446 587.421509 110.909256 54 55 59
270.808655 573.013977 115.513191 91 87 88
279.259399 581.900391 122.441093 77 76 77
272.189240 582.150940 115.383125 95 92 93
286.316101 580.508057 119.727608 75 74 76
284.542175 581.257751 122.201088 79 77 78
267.740967 615.085327 116.051979 35 38 42
257.879852 641.912048 113.865509 106 100 98
262.383118 639.026123 116.722717 82 79 80
277.731018 625.029358 109.973129 37 39 42
282.084869 622.189331 116.044220 42 42 45
279.807434 619.577332 131.865189 36 36 37
280.609436 621.152466 123.140900 34 36 38
302.380768 586.671509 127.869202 55 58 62
292.760071 602.616455 102.516113 104 97 94
289.204407 601.824036 96.736183 104 97 94
297.254517 604.281677 107.923820 107 99 95
303.734680 601.324951 127.711868 90 84 80
310.168091 591.507324 124.274017 73 67 65
300.651855 584.557007 123.180840 90 83 80
289.807831 619.768860 99.464729 106 99 96
293.824280 620.250488 128.453888 38 38 39
296.748138 609.174194 128.548126 93 86 83
296.122162 517.698914 130.399658 120 113 111
302.101868 516.033875 142.858002 127 119 116
311.491394 535.151550 153.672729 129 123 122
313.028351 517.137390 161.850403 124 118 117
318.623108 520.917725 172.988922 121 115 112
315.478333 535.041931 175.936630 112 107 106
324.959900 538.779175 183.389206 116 111 111
313.589844 541.196045 187.205688 98 95 96
303.275360 558.948792 131.914078 108 103 101
295.845764 560.464600 136.184998 119 116 118
292.955261 570.004028 129.293686 100 97 97
299.898193 574.440125 145.738724 90 87 89
305.830627 547.041077 155.416107 93 79 67
306.522217 548.326172 155.588028 84 73 63
308.830688 540.462952 151.387924 86 74 64
312.565308 551.006287 152.132233 91 78 67
308.815674 581.039795 147.842484 99 96 97
308.165802 569.318115 151.363205 94 91 93
308.479889 560.551941 157.565582 89 81 77
310.820801 568.901855 160.624832 107 103 104
317.109314 544.688354 165.819626 83 73 64
306.465149 549.150146 166.978317 82 72 63
317.417084 553.571045 165.605652 78 68 59
317.308502 552.797363 173.215439 85 81 79
315.882446 566.327026 173.097153 63 61 60
257.285370 565.626587 250.788574 158 154 157
262.007538 568.738770 239.630157 133 128 128
268.102692 571.990173 240.322449 79 75 76
279.470276 555.392090 247.078735 169 163 165
287.410431 552.123352 243.066299 137 127 126
281.570892 564.702637 245.960052 152 144 143
280.752045 571.917847 232.734436 97 96 99
282.733643 566.313965 235.408707 159 153 155
314.135406 517.150940 207.386612 128 119 115
320.790680 520.580933 207.247894 99 90 84
317.580902 524.775635 217.885056 123 117 117
314.551697 528.573792 213.573471 157 149 149
314.024750 531.014038 219.629776 133 125 122
313.813019 539.761841 206.586227 89 82 80
318.005829 539.542908 211.343460 68 65 65
302.642731 526.700439 251.628067 159 151 151
302.510254 532.036499 254.628281 160 153 154
312.459869 523.305542 224.459473 148 142 141
303.470734 516.149231 251.754822 148 139 138
317.577942 512.992126 245.166046 147 139 137
312.219421 514.846436 256.540466 150 143 144
307.793182 525.271606 244.453156 128 117 111
316.926636 537.718323 227.298676 130 122 120
313.726898 531.135315 231.070145 148 140 139
304.707489 540.472412 248.140762 136 130 130
297.096436 557.766296 239.533783 141 133 133
303.040985 546.349854 232.918900 146 139 139
297.148376 563.787109 236.912628 150 142 141
298.347992 566.583374 230.119507 141 136 138
311.670532 559.729858 226.317978 106 96 88
301.042023 568.071167 230.796112 104 95 90
318.206268 561.307922 226.990417 114 104 96
280.331207 619.818298 129.018539 56 54 54
287.384949 631.696106 134.773727 54 53 53
298.707886 589.464600 137.327042 81 80 83
303.532379 576.706665 130.600037 87 85 86
307.714539 589.947083 134.596497 46 46 48
308.134613 583.575073 131.700363 58 58 60
313.193756 582.391785 138.859055 93 87 83
308.226624 576.464478 149.120026 84 82 84
313.312286 583.157532 146.213837 90 82 78
309.734253 600.991089 127.466484 62 57 54
309.820892 595.528687 131.718262 66 60 58
302.441162 603.579590 133.119019 90 82 77
317.357483 596.817139 137.352570 103 92 85
308.425018 577.075623 160.956558 97 95 96
317.100800 576.520264 162.626923 105 104 107
293.211761 614.386841 131.100876 81 74 71
300.262695 619.313782 142.244751 49 49 50
294.447632 625.990906 140.689407 96 89 86
290.741058 644.617310 133.011261 80 76 76
307.372742 633.328918 155.575211 58 57 58
314.287109 618.767334 146.042572 101 90 82
315.520386 616.819092 142.569870 90 82 78
305.681274 641.782166 153.407364 57 54 53
313.568115 637.151794 148.274094 59 58 58
318.179016 632.159058 158.192581 79 74 72
306.900757 618.837646 168.594971 83 78 76
305.795715 614.518127 178.733887 102 95 92
305.543427 619.762024 182.011368 107 99 96
313.893860 606.133423 181.403137 116 108 105
296.800659 635.114441 155.571991 58 55 53
310.167511 625.789673 162.084335 71 67 67
316.280823 620.769470 186.750656 88 83 82
256.574982 574.443481 244.835571 50 51 56
265.329193 582.253906 246.098846 49 51 55
274.126190 581.866455 237.120377 50 52 55
273.274963 599.006653 239.602264 57 57 59
276.671570 583.020447 238.225937 61 62 66
274.020325 598.315918 241.180557 54 55 59
289.205048 599.792419 231.583298 49 51 55
274.015137 612.893127 235.810623 126 120 119
265.705261 617.106140 244.712601 107 103 104
273.750153 614.018372 238.562927 126 119 118
273.842041 620.743774 235.269394 127 121 120
280.145935 618.709473 233.463516 135 127 125
279.846313 613.502563 230.575623 120 113 111
278.169525 621.379150 236.580017 131 125 123
279.326263 617.492737 240.174515 112 106 106
288.597351 620.965942 234.984894 117 111 111
277.741913 626.577393 243.463013 96 92 93
271.092560 629.838501 250.347534 91 87 87
275.855652 620.549438 246.688354 75 74 75
278.743347 624.739685 240.321167 99 96 97
281.509583 630.225098 241.204971 79 76 76
283.939606 628.147400 243.868896 102 97 96
286.199890 638.312256 248.131790 121 113 111
296.864075 598.311951 233.161453 48 49 53
316.341217 589.440063 234.544128 100 90 83
290.478088 606.087158 220.375046 131 125 124
304.839172 614.116516 210.633240 128 118 113
305.055359 622.077087 196.061600 92 85 81
306.577698 623.354553 198.907120 105 96 92
305.877930 613.129150 219.942245 91 82 76
315.640381 614.284363 214.122925 99 88 80
