ply
format ascii 1.0
element vertex 1110
property float x
property float y
property float z
property uchar red
property uchar green
property uchar blue
end_header
130.586655 661.117920 101.010712 89 84 83
127.789268 665.607788 107.466614 65 63 63
124.537834 659.622192 115.669533 57 58 60
153.177078 702.412476 97.335754 79 75 75
158.934799 642.290833 89.055481 62 60 61
180.817062 682.874268 67.996078 78 71 66
188.911667 699.149475 63.812077 78 72 69
143.139343 722.644531 88.038834 112 108 108
155.737946 731.935120 83.695610 59 58 59
126.143921 708.937317 97.748245 90 84 80
174.376663 700.940247 70.723152 100 96 95
175.578903 704.921997 75.948418 100 96 95
161.161499 703.539917 79.050362 100 96 95
170.564957 739.726196 81.424164 63 61 61
165.415970 769.399902 80.410522 101 97 97
172.410934 767.547241 68.807907 91 87 87
164.247665 756.898682 80.241875 100 96 95
181.990417 738.481323 66.237061 74 70 69
206.057343 663.717712 34.119972 111 104 101
188.994904 654.772034 58.992271 71 68 68
209.807648 655.292786 47.078308 116 110 108
216.609528 663.850525 60.149181 81 76 74
209.187134 669.189880 36.258381 130 124 124
209.086929 676.187683 51.243237 65 61 59
216.226471 687.122803 47.598476 108 100 95
210.013168 669.457275 63.146713 102 92 85
208.100632 643.885925 76.094368 73 69 68
215.851532 642.725342 106.761795 87 83 83
229.007202 650.612000 79.142349 77 74 73
231.463547 647.533020 82.975723 75 71 71
232.508896 648.676453 101.880547 80 77 77
231.952042 675.295837 73.078384 100 95 95
231.256012 693.630188 65.195328 113 106 103
235.735886 694.829163 69.256584 94 88 84
257.750610 699.709473 78.971451 103 97 96
193.449097 709.058350 48.198177 62 59 58
200.196106 710.085266 52.985592 124 118 118
192.850922 722.208069 56.087536 70 68 67
224.295425 710.518005 53.261814 86 79 76
204.149384 729.436523 49.564514 104 95 90
215.853424 729.747559 58.569405 81 73 68
213.621094 752.614441 49.508224 103 96 92
247.877213 748.555786 79.160751 82 74 68
248.875610 738.096558 81.649590 108 101 99
132.033234 728.540894 254.662430 87 81 79
137.396164 728.895813 246.186386 99 95 96
144.387405 738.890076 236.267639 108 98 93
158.539871 738.120972 251.495865 85 81 82
110.806229 669.551392 255.438782 62 59 58
121.156456 668.481079 271.230560 37 38 40
106.862663 682.713623 269.367096 109 106 107
103.134865 688.872864 268.193054 140 118 109
116.323608 672.581238 265.454956 48 48 49
148.401291 579.568726 298.733154 68 71 76
137.800079 586.441711 312.331604 100 102 109
143.189392 595.377625 296.951874 81 82 87
159.268265 583.358887 304.861481 116 113 116
163.890137 598.890381 305.027496 115 112 114
155.654816 604.347229 306.522491 95 93 97
155.011826 601.537537 313.496063 96 99 105
159.826416 617.900513 266.323212 93 86 83
155.318802 610.283081 318.835724 117 116 121
151.021957 637.364807 289.926605 100 99 101
161.103745 597.749756 305.830444 103 102 106
164.063293 628.294739 273.845001 105 98 96
178.443085 609.147949 267.759033 74 72 72
188.772308 612.683594 257.329071 76 73 74
185.674362 621.046509 294.976593 82 75 72
170.256729 612.224731 307.500641 73 73 75
170.610901 638.713989 288.519684 55 54 54
173.996597 607.270569 313.721832 85 83 85
172.553085 641.870789 293.693298 68 67 68
178.723495 623.010071 311.941315 56 56 59
158.112717 577.704834 325.510773 117 117 122
162.198181 582.297058 326.010071 54 58 65
161.078384 584.995056 321.550568 51 52 56
187.019028 597.853271 320.705780 97 96 100
183.766022 600.615845 321.805756 63 62 63
166.042084 630.671082 322.085480 74 73 76
183.335815 619.795349 337.198364 96 96 101
253.292053 552.205200 258.929596 113 107 106
207.835114 577.671448 360.380768 48 50 54
212.243866 573.884583 367.506531 88 89 94
227.876419 532.388672 377.536407 54 55 58
231.663345 572.236816 386.854126 111 110 114
194.074631 620.126343 281.740265 97 94 94
208.029327 616.818115 281.887482 81 78 77
208.199875 610.988220 273.661865 83 80 81
209.747818 617.721069 287.986267 84 80 80
194.570038 627.284790 319.854401 98 97 100
212.428680 619.177002 291.642303 96 95 96
240.673141 623.790588 280.662262 61 55 51
225.508667 617.265137 289.582642 92 89 90
222.440933 626.503296 297.069611 120 113 112
202.418411 598.228943 343.741241 60 60 63
191.127838 605.726440 344.091187 54 58 63
196.766006 593.988220 345.276611 49 51 54
214.679779 607.518372 341.010223 52 52 54
199.040436 598.465332 358.088318 61 64 69
211.913071 574.729980 359.344910 62 62 64
196.199524 605.692505 327.555573 89 87 88
208.284760 635.251038 347.240631 68 69 73
215.102905 625.000671 335.351471 123 123 132
207.155624 640.796753 322.415924 46 46 48
222.506638 621.089600 357.251038 106 107 112
222.925018 620.984192 361.342682 90 91 95
228.608505 582.335083 348.730133 52 53 55
225.216751 577.508423 379.973724 143 141 146
232.186172 593.188232 364.575775 56 58 61
232.932129 591.199341 370.759766 130 128 132
236.570343 642.692871 351.908234 62 66 73
229.759064 636.761536 364.490448 55 58 64
235.923264 638.280701 353.991180 55 59 66
218.967270 537.356079 387.888092 99 98 102
227.194382 523.347595 400.909058 52 53 57
232.672516 530.670471 415.177734 118 120 128
232.048660 541.417480 401.066559 88 90 97
242.023453 520.903564 392.004608 60 62 66
244.702103 539.881165 389.739624 78 79 84
244.623383 548.715088 400.409576 109 110 116
247.266205 523.957825 403.898834 140 138 143
134.620926 654.677246 257.405151 84 76 71
139.047318 641.727417 279.278595 49 51 53
129.904938 660.837769 266.393097 49 49 50
130.739105 649.615662 295.066132 91 87 86
145.303406 663.040649 309.631348 68 71 77
145.032089 641.214966 289.971375 66 64 64
150.446930 656.338013 310.819366 71 66 65
152.061234 704.674561 274.145569 95 88 86
131.891220 675.562439 313.006592 134 120 113
155.459549 674.411194 310.978333 116 110 111
187.305099 641.629639 302.585236 50 49 52
161.378128 699.091309 264.652344 102 94 91
157.206100 687.797180 302.508270 122 110 106
173.895050 649.406433 317.059845 58 59 63
180.054993 649.147583 322.361420 90 92 97
180.260025 655.450806 316.551208 101 102 108
192.388367 671.644226 323.455048 71 71 75
134.566833 708.635681 264.727814 112 97 90
137.681107 724.990662 261.607269 122 117 118
145.509018 710.652832 281.868378 140 133 133
154.928635 741.705200 261.229187 55 54 57
168.351379 713.854614 273.306793 108 100 97
170.701096 717.359741 291.025482 73 73 76
180.569489 706.643616 281.795563 95 88 86
179.248917 732.114319 289.337494 86 83 86
189.813049 707.437988 306.555328 128 126 132
157.497635 745.952026 287.781494 96 97 103
176.582703 739.206543 289.771942 134 131 134
209.690659 661.243835 304.451294 90 86 87
203.656876 657.095886 308.527252 72 70 72
213.962570 655.459229 294.394318 100 95 93
208.106079 679.242554 312.617737 57 55 55
199.631592 685.840881 306.369324 35 37 41
249.945023 642.020691 278.428650 98 91 89
239.563614 656.782410 275.115356 98 93 92
255.013550 661.172241 281.547852 84 76 71
238.013000 639.152710 290.877472 110 101 96
245.287979 693.864868 286.321991 71 67 66
255.502228 691.216980 284.036224 70 66 65
251.297836 695.838684 283.299744 52 50 51
223.120697 688.026123 302.571167 140 128 123
227.440765 700.979675 305.141632 106 93 84
199.221909 653.238037 342.402649 78 77 79
198.944321 664.382629 343.978333 66 67 73
216.320740 657.700195 319.723602 50 49 50
211.840347 668.389221 348.103546 72 73 78
198.739243 687.503601 319.146027 97 95 98
208.667831 682.360840 325.934631 65 70 78
229.671509 642.209412 341.880188 60 60 63
235.479599 642.045044 341.123199 58 57 57
224.837402 665.114563 327.916870 54 51 50
237.605331 661.271301 353.233063 33 37 42
194.687088 720.893616 264.868652 72 67 66
208.368729 720.216797 272.647675 89 83 81
227.755203 717.720886 285.362244 101 95 93
236.130661 706.503479 277.211304 78 72 68
235.725739 716.252075 280.610840 83 77 76
241.573837 731.579712 274.277283 82 72 69
244.721222 719.269226 281.509033 100 92 89
236.183609 706.220154 289.244873 91 84 80
226.214020 760.715576 274.376251 109 95 88
237.084579 759.601990 276.086731 50 47 47
236.376007 747.989685 290.497589 91 81 74
77.549568 791.255066 127.161179 137 130 131
96.084740 796.512268 108.676971 118 113 113
73.740891 794.356567 121.182549 129 123 124
79.617279 797.096008 123.636856 124 118 118
87.399551 800.205933 125.749359 119 113 112
122.062515 801.216064 93.670113 114 107 106
94.581589 803.107788 113.698860 114 106 104
106.905228 829.177490 118.521820 136 126 122
114.024857 808.151794 95.941940 134 126 125
118.685982 828.843689 110.696945 121 113 110
62.679897 768.618347 138.552826 65 62 63
67.197746 782.078979 141.053329 129 115 105
70.790306 787.116028 151.210602 163 155 154
70.187958 778.456970 160.684570 143 136 135
77.515823 778.197388 164.815247 119 108 102
91.213318 789.444763 173.415588 105 97 93
97.104599 796.637573 183.682877 151 142 140
82.231392 808.168091 159.729172 141 133 131
85.459435 804.767090 169.029236 128 119 116
88.918343 818.106750 164.765869 155 145 144
93.120476 788.003052 183.547577 94 86 82
111.183159 775.054565 188.668610 128 118 114
90.232750 803.826660 177.618927 166 156 155
113.455658 828.955994 167.705978 131 120 117
126.300323 798.573792 189.976501 136 128 127
118.289711 830.059814 176.076889 170 160 158
117.173912 781.090637 191.277634 158 147 144
116.202377 781.875305 195.392548 168 158 156
123.332809 767.394226 211.524368 90 81 77
119.379913 775.430359 221.273453 61 60 62
123.278862 781.420044 191.579208 169 158 156
124.658127 779.493347 232.158966 78 81 87
105.017685 833.253479 155.659866 107 90 83
108.245987 839.926147 149.869690 164 153 151
116.204758 833.407104 159.030365 152 139 137
189.132568 776.928772 60.290264 137 128 126
126.690758 789.914734 86.808937 115 110 109
140.257538 799.895935 87.057373 111 106 105
153.170242 823.155884 92.412033 104 98 97
162.716248 832.317749 88.507652 45 46 50
132.644409 825.626221 96.507294 159 151 152
165.863266 775.083801 77.704636 94 90 90
164.214401 783.772705 81.971619 86 83 84
172.307297 789.438232 80.543747 64 62 62
189.421875 783.066711 67.030724 104 98 96
172.436630 803.563965 79.525024 84 81 83
163.860855 825.433167 81.541519 40 43 47
171.452026 825.215881 83.819153 40 42 46
180.291977 831.608704 82.705742 48 49 52
160.028320 847.784180 97.037140 48 49 53
140.579041 834.964294 108.069290 87 80 80
141.247025 834.805969 105.049866 130 122 120
156.705414 846.824341 96.142586 38 41 46
139.122910 862.808533 123.459030 72 73 78
168.980835 840.426147 76.471046 55 58 65
162.064835 842.952881 83.025200 49 54 63
162.193466 854.792480 93.842865 52 51 53
165.956528 857.083496 97.842941 51 53 60
186.220657 854.752136 117.224045 152 138 131
158.128860 866.748047 109.675781 62 59 68
215.470428 790.144897 69.399849 70 64 63
227.594437 795.324219 81.693939 98 87 80
200.789825 807.603882 81.469177 75 71 71
220.313675 832.681946 93.961868 123 113 110
217.817642 826.095032 98.699661 128 117 114
223.697922 815.391479 89.827538 56 55 56
234.276901 816.738647 89.980118 142 133 131
232.839508 824.680786 117.144310 142 132 128
245.767487 832.477234 122.854813 121 112 108
197.415924 827.376709 86.920753 51 49 51
210.392776 834.679138 102.727623 121 103 106
135.033875 830.906433 168.987457 131 120 116
128.991028 796.344177 205.610550 52 49 51
143.115540 799.004272 218.230927 155 144 140
139.028458 785.363831 235.985336 72 74 80
155.291672 790.929932 252.927399 60 62 67
142.400635 808.456604 206.178101 78 71 68
170.268478 800.197510 257.393097 85 89 97
183.004471 775.715332 250.930634 86 82 82
179.215302 798.557678 240.491226 102 96 95
182.891739 797.960999 246.595078 106 99 96
169.531021 815.621948 217.255173 105 91 83
171.931076 828.654419 217.992477 91 82 77
181.721512 797.480408 237.591934 102 91 88
185.491364 812.547058 240.190552 118 107 101
195.032440 797.938171 246.255920 98 91 89
133.800705 861.741821 145.210709 152 139 133
141.209610 853.424622 183.167969 145 131 125
150.974426 857.994995 171.944351 178 165 161
147.077682 844.866760 193.319321 141 126 117
140.618225 866.870178 155.254089 147 136 130
169.207352 860.104797 177.355103 102 92 87
171.625427 860.213806 185.290619 107 96 91
180.263107 863.278992 140.789276 136 127 124
155.900497 867.148132 152.974045 154 143 139
174.057983 877.271240 178.461639 122 112 108
173.923965 872.863525 184.994003 100 88 81
174.535995 874.975037 186.346283 120 99 94
192.591660 892.565918 159.843140 119 87 90
144.590393 840.589905 189.456360 119 105 96
153.980728 850.739014 197.814957 130 116 106
154.947739 852.774048 200.427795 111 97 86
169.709702 844.210999 196.650787 98 88 82
160.635590 850.368958 194.850037 119 107 101
184.452698 849.500732 212.959152 116 104 98
172.162933 876.942627 192.297180 138 103 99
189.750977 890.741516 237.686646 99 86 78
204.597183 811.736938 242.567154 47 45 46
210.901382 819.369141 233.604294 81 72 67
216.184464 820.715820 235.803879 84 76 73
240.462082 797.035217 252.908371 76 69 64
226.201233 818.284973 242.417923 107 100 99
197.330582 864.224731 139.736954 170 160 157
209.834183 857.733826 126.768623 167 157 154
220.117462 870.400879 140.086319 158 149 147
206.720840 872.427490 144.713013 108 101 98
215.142227 866.524841 142.848206 137 126 122
217.997086 875.905029 150.936508 133 123 118
214.884216 896.787720 163.689148 99 81 75
230.035278 862.300842 140.565231 123 116 117
239.468903 871.958984 155.011948 79 67 68
194.378326 838.949097 219.941559 57 46 42
205.980499 836.859680 220.539871 89 68 66
224.177155 862.123291 235.642288 62 55 51
216.609055 857.998169 248.158157 104 92 86
191.257660 885.167297 244.037201 94 85 81
202.261490 884.255005 248.034515 109 100 96
216.066269 880.468201 248.488083 147 123 115
207.533218 886.171753 255.276657 138 121 111
219.056091 891.823303 251.971237 139 124 120
227.446945 862.881226 255.003113 82 74 71
243.301987 872.013245 242.644943 106 95 88
245.221802 876.542603 242.845154 64 61 63
183.940765 901.015686 172.923004 116 92 90
177.800797 894.580322 186.391708 130 104 98
157.890854 942.269714 182.601974 81 78 78
168.837982 937.394043 183.279907 68 67 70
179.309326 955.560974 166.316345 97 89 85
180.894028 916.140564 225.308960 136 115 106
185.027893 893.194763 227.325562 98 89 83
185.764648 919.364624 231.071716 142 117 102
181.352722 931.623108 201.381790 79 73 71
167.718353 940.032104 202.985306 39 37 35
165.425125 959.755737 222.506241 42 41 44
179.886948 931.998596 200.217957 66 60 56
162.716919 958.925598 233.559464 99 93 90
172.020569 944.707031 248.270767 60 61 64
158.531097 961.466125 180.559219 139 129 125
176.105270 971.986267 163.307373 91 83 78
159.949265 968.746216 196.233673 162 151 147
159.575287 964.676819 207.799637 150 140 135
149.982117 965.488831 213.007248 143 132 126
165.771530 965.701782 223.135239 118 107 100
158.997589 973.238708 213.905945 131 125 123
161.178513 980.290588 224.230743 126 120 119
168.806183 986.344788 191.322556 163 152 149
167.856201 995.704163 241.832886 109 106 127
190.153656 1011.288574 242.475189 183 167 159
190.826157 1005.320190 235.433746 186 170 163
204.934433 902.744385 169.759140 103 83 78
195.190262 961.476379 146.183289 91 84 79
199.813446 946.461060 152.569962 74 71 70
221.301682 963.455261 150.972641 110 101 97
233.158768 916.524841 176.000732 55 52 52
245.654297 893.660156 189.159775 105 89 77
240.889801 937.109436 153.681595 92 86 84
243.394150 942.496704 167.662659 52 50 50
194.823318 907.633911 246.746475 100 91 85
236.669708 894.615234 252.018326 92 69 64
250.506378 904.441162 247.860001 132 110 96
192.981308 975.806030 154.928650 114 105 100
200.490005 980.606018 156.366013 98 89 84
212.954727 963.581970 145.513443 92 84 80
209.832962 987.161560 164.635559 157 146 143
215.809250 985.981812 164.702118 151 142 138
216.680099 1005.906311 168.713272 107 98 93
218.941620 993.387451 162.573502 165 153 148
236.283890 961.149048 157.539566 120 111 108
237.393631 969.628418 160.694611 136 126 122
249.395126 959.248657 151.925262 99 93 90
223.633835 1003.248840 175.246033 179 167 162
247.547333 1003.879578 191.180862 175 162 156
212.155106 1020.153564 188.423111 206 193 189
212.793121 1018.111694 213.512787 167 164 169
211.355026 1012.440430 217.198578 204 188 181
195.333420 1009.218323 249.636276 184 168 160
214.668488 1013.708984 225.352600 209 192 184
235.656876 1015.061646 195.239365 207 191 183
241.355362 1019.237793 213.625214 217 199 190
254.172028 1012.477966 216.432037 188 171 161
236.102661 1020.330933 235.725052 218 201 193
231.039703 1010.351440 243.912659 208 190 180
247.779205 1005.736206 237.164719 206 187 177
202.860886 765.788818 254.087234 107 96 90
221.240234 787.904907 263.870483 112 101 97
249.244064 777.444336 272.324127 71 63 57
221.214722 832.567688 269.306305 42 43 45
226.892426 832.495178 275.812836 46 48 51
245.108902 824.178894 276.708710 58 58 60
225.319809 821.503601 299.087219 125 118 117
228.231888 832.470764 298.029083 142 135 135
251.643021 799.334778 314.831116 46 49 53
214.935928 823.202026 256.818115 37 39 43
206.389389 846.214172 278.771851 126 116 112
214.878769 848.718445 274.186584 133 126 128
223.127655 843.745056 286.500122 130 122 120
228.998856 831.508423 251.069199 37 39 42
221.356384 840.506592 287.297913 178 167 164
179.225555 953.606812 270.384949 74 72 73
181.009766 940.779480 263.361816 73 68 67
199.529922 986.106689 268.561371 85 91 102
205.781296 925.202454 265.156525 151 124 115
216.588135 921.487793 261.543701 149 129 123
193.755539 932.180908 258.839661 89 79 74
207.695496 934.513794 282.174835 62 60 60
222.034485 913.063904 266.108337 153 132 121
228.585083 918.443481 258.637299 155 137 128
244.972137 905.546143 262.451904 153 127 120
226.438660 927.357971 266.609894 66 60 59
224.996307 939.470398 278.015930 61 54 52
250.873108 924.169556 282.095032 106 101 101
231.616516 935.270630 293.030914 86 83 82
201.707230 981.205017 278.518219 179 165 158
239.842560 962.793518 303.414337 122 117 122
250.252930 984.996399 285.956787 152 139 134
229.893387 1004.784546 257.864868 199 182 172
256.826019 524.791748 102.393295 95 84 75
277.319702 539.581787 114.219193 100 87 75
269.938995 555.739502 107.986290 77 68 61
289.554108 545.596558 126.531509 95 83 73
298.158752 565.484375 121.247574 105 101 101
272.269867 579.955078 107.666977 67 66 67
284.510284 576.146118 115.172089 78 77 78
278.131989 587.404358 121.669899 51 54 60
289.927887 589.408142 125.841774 68 67 69
287.977936 606.087402 93.262482 95 89 87
284.864136 617.696167 128.315704 37 39 42
279.978302 633.886719 128.267715 54 53 55
304.872314 600.310608 124.661636 92 84 81
291.580872 617.237000 104.004265 108 101 97
303.881439 516.101624 134.203186 137 131 130
312.116333 511.663635 146.503815 120 115 116
311.801758 519.805176 149.563141 129 123 123
313.688019 514.882141 172.725555 118 111 109
313.443695 524.184448 162.300400 115 108 106
310.650421 538.508484 157.431000 126 121 120
318.352417 540.785828 168.413315 107 100 99
313.035461 543.194641 182.298141 64 62 61
301.380524 543.664551 127.887177 96 84 74
302.356506 558.237671 130.734131 113 107 105
310.983154 552.757019 162.656052 82 71 62
319.842102 547.546692 166.396500 80 69 60
318.060608 563.551758 167.691513 88 81 77
312.410614 569.077881 174.999939 80 77 78
273.204468 551.079651 245.185364 139 130 127
322.994049 525.884277 208.555756 125 118 115
320.161377 522.270386 218.551926 113 107 106
314.991821 543.446533 221.991074 97 87 81
316.643707 535.905762 217.518356 97 93 95
318.198303 521.778442 233.297791 147 139 137
306.245270 519.076111 256.470001 143 136 135
306.469971 546.893433 237.967789 142 133 132
291.803986 547.422913 238.441849 163 155 155
297.090759 582.583679 227.559799 128 121 121
313.206940 559.163025 228.552475 113 101 93
303.125336 578.318909 147.425461 81 78 79
312.670258 581.689758 143.631760 90 85 84
313.695923 574.801758 156.785507 83 79 78
317.615234 595.671753 140.527863 101 90 82
296.987152 616.843140 135.642548 53 53 53
297.556854 615.469360 159.441452 55 53 53
314.783569 617.516418 150.133392 102 91 83
313.463257 614.533997 176.289703 76 70 68
314.934723 615.979370 157.319778 90 83 80
317.527527 615.099731 179.311951 96 87 82
310.539124 628.192017 178.028595 90 84 82
302.264801 620.020935 195.039490 107 99 96
309.738464 620.473267 179.493820 80 76 75
266.199371 585.825012 242.744461 53 55 59
254.982697 597.381531 245.236710 49 49 50
256.054596 608.064392 241.375687 124 118 117
286.153259 621.792908 239.336884 81 78 77
302.477478 580.819946 233.971985 44 45 47
297.708923 612.438232 227.954269 123 116 114
311.075378 626.783081 216.001099 105 99 98
301.815857 631.403564 235.132294 107 101 99
288.167480 631.953430 238.733810 89 85 84
311.033081 606.454224 226.767838 50 49 52
325.948853 561.433777 185.873779 78 71 67
322.774170 574.608459 223.337418 110 100 92
333.835876 570.336304 197.242569 112 101 94
322.771332 549.958984 231.195221 115 105 99
316.515289 569.661926 227.891571 84 77 73
314.517029 582.329224 160.337814 95 87 82
339.384735 584.541565 185.743958 74 67 62
341.421997 590.573914 182.314987 68 62 58
318.962585 607.249329 159.887863 93 80 69
369.683136 585.820313 152.788589 112 99 90
363.549927 595.453613 132.345734 101 91 84
356.896362 595.979858 157.410812 73 68 65
369.481720 596.443909 141.689423 100 88 77
365.544281 594.844360 150.956955 100 87 76
355.545502 591.821716 182.454315 105 92 82
360.437988 601.481445 171.895615 96 84 75
365.030609 613.512817 137.534332 134 125 123
357.733490 615.372864 148.424255 118 106 99
360.012909 606.415100 151.871658 113 100 90
350.943542 597.557739 191.509888 98 86 77
322.263062 597.225281 229.576721 120 114 112
321.661377 600.605835 224.927231 107 94 86
326.794586 614.207397 193.403732 97 87 79
323.075195 637.348694 203.711349 116 109 108
343.055695 608.588196 190.307373 124 112 105
256.985596 660.747620 81.963280 94 88 85
262.129150 648.364319 104.592667 87 84 84
265.031921 641.196655 112.634392 89 86 86
285.103485 653.868225 98.074905 73 69 68
308.148560 651.808044 102.225189 101 95 94
307.504486 674.129395 100.227654 100 92 86
313.468323 680.381897 131.238541 104 95 90
315.865906 688.591064 100.911949 98 91 88
271.725159 705.872131 79.812584 106 101 100
267.610046 719.466797 79.521202 110 103 100
272.484436 706.636047 86.714378 95 87 82
264.467957 718.373169 85.653313 105 98 94
275.904236 705.316284 87.095665 100 95 94
275.001129 735.263977 86.744995 104 99 99
285.085266 728.683777 87.700294 124 118 117
260.768951 738.605103 85.298927 102 98 99
268.076080 744.579651 84.646683 99 91 86
251.734268 769.176819 86.996758 92 85 82
267.264435 756.501709 89.469635 107 103 104
311.054047 709.613281 109.281807 82 74 69
318.909485 708.003601 117.482353 113 104 100
302.960052 727.489868 99.267258 98 92 90
294.704773 761.236877 95.875359 102 96 94
330.166656 667.988892 112.461777 95 85 78
328.019409 678.280090 105.668381 103 96 92
321.282349 718.332275 116.814461 95 86 81
294.549011 648.148376 138.513840 99 95 95
305.338257 642.006836 137.122589 91 87 87
310.039673 639.008606 151.322510 56 55 56
317.053833 642.039063 219.130142 121 113 110
291.691589 644.183289 248.235809 110 100 93
313.946960 651.461182 227.702377 118 109 105
317.500122 670.675964 219.606491 97 86 78
315.178467 697.000488 242.753906 98 91 88
303.820496 694.210144 244.331451 93 86 83
312.352264 753.131531 135.625336 53 48 45
316.364075 725.899109 222.664795 52 49 48
314.226685 730.018799 241.438858 34 34 36
312.137238 736.866760 237.841492 60 58 59
327.512085 649.637268 129.166000 69 67 68
322.011597 651.688171 142.842758 103 94 88
336.601563 667.688904 136.861450 95 85 77
329.367493 660.876282 142.428253 93 83 74
329.083099 659.469360 150.938522 142 131 127
329.227875 661.783081 176.681610 79 72 71
327.822449 651.721741 176.132492 107 103 104
322.603455 680.608276 127.876083 86 79 75
320.983093 686.554565 129.767380 124 116 113
329.435394 687.847900 150.871414 115 106 101
330.442749 666.720825 160.179916 100 90 82
316.152069 661.783752 196.166840 113 105 103
319.565735 685.823975 214.980850 110 101 96
332.344879 688.144592 195.573166 126 118 115
327.486664 723.638611 131.997482 104 96 92
325.949768 735.430481 143.264069 80 73 70
327.541412 764.736633 153.744980 113 106 103
332.394928 742.384399 173.649551 125 117 114
336.537262 747.968323 167.699921 117 109 106
328.306122 753.599304 177.977798 99 89 82
338.649841 750.153198 190.078506 109 100 95
330.594818 715.505920 194.723679 118 109 106
340.329590 721.158203 212.392715 115 105 99
324.161804 706.518921 256.775879 75 67 62
321.806030 730.928223 239.399399 34 34 35
319.491577 718.651978 249.038391 66 60 59
325.254761 738.863831 206.745728 86 79 75
331.031647 736.584473 207.589172 86 79 74
334.892334 751.054993 205.982803 115 107 103
339.951996 735.767578 208.439163 121 108 98
325.879272 751.557007 229.192047 61 60 61
348.488098 760.249817 227.683655 84 76 71
263.958069 546.569397 258.663177 151 145 147
273.981384 518.243164 262.158630 130 122 121
282.999146 526.589539 263.508667 109 97 90
254.723465 548.441895 257.228394 148 142 143
295.549957 528.262207 258.786591 166 159 161
267.725006 630.549744 262.471313 114 108 107
259.167755 640.335815 270.705292 106 99 96
272.226563 653.827209 259.257782 70 63 59
290.912323 671.468445 263.912964 84 77 72
273.954163 694.145813 280.155853 74 71 70
264.471405 695.994934 308.235382 93 85 80
277.709503 692.470764 286.710907 87 83 82
283.811035 696.276855 302.135101 79 71 68
278.107117 692.370483 313.785889 105 95 90
296.150757 686.200195 261.184204 82 77 77
291.885040 706.299072 283.176483 55 50 48
296.318268 686.901917 282.170013 92 87 86
293.417480 699.698486 301.260803 77 71 67
258.156708 730.949463 271.447479 40 38 37
268.641052 702.534058 305.393616 73 66 63
261.973511 757.422913 265.236267 73 65 60
257.891785 758.352661 262.900665 51 47 44
277.172272 735.983459 263.817749 37 37 39
275.620361 751.702576 267.833130 48 46 45
287.486664 722.323608 263.515564 40 39 40
303.288208 725.694519 267.876526 46 47 50
322.289581 706.585327 271.384125 83 74 67
310.877289 707.875122 274.243561 86 79 75
311.176025 723.776428 262.088562 48 47 48
317.173645 735.726929 287.592499 100 96 95
302.891022 733.315125 298.222687 99 93 91
291.295349 731.489624 257.900787 35 37 41
292.572815 738.714783 260.199554 35 38 42
288.870911 750.830139 266.161133 80 76 77
288.200256 760.558777 274.562805 94 88 87
285.678833 761.940369 274.793396 92 87 86
307.276886 734.088074 263.317444 69 68 69
302.509827 747.845886 317.137573 67 62 60
294.457428 755.249634 312.866943 86 80 78
278.763092 757.815857 336.425690 106 95 87
281.483551 765.475037 326.954742 100 91 85
281.758972 756.155029 347.415192 143 128 119
296.298004 725.716248 344.308594 113 108 108
308.592743 719.729980 325.673615 95 90 88
300.212952 727.022827 366.459747 109 107 109
299.756653 725.609985 369.470612 125 123 125
291.293915 746.154480 329.707031 102 96 93
286.152100 750.580811 328.304871 87 78 72
297.185791 751.019653 363.165161 130 110 99
332.768372 699.936340 353.382385 103 100 100
338.576782 729.065796 277.306793 96 94 95
349.093506 724.027954 288.342133 82 79 79
327.515991 717.947998 311.650238 97 93 92
341.621307 717.263367 308.193726 110 108 111
346.137878 722.262085 288.487213 96 92 91
321.552490 736.975647 257.777435 99 96 96
338.286652 741.176147 256.871643 87 83 81
360.249268 724.932983 311.761627 128 121 120
359.324005 759.131958 260.010529 130 123 121
359.596741 755.271667 260.644684 113 106 104
376.265717 750.512756 298.726440 113 104 100
369.299225 758.106628 299.290192 122 114 110
355.456390 710.771484 332.852783 101 96 96
324.085907 707.872253 357.820221 100 96 97
333.220978 720.642761 373.405090 98 88 82
323.255585 727.618958 376.344086 121 115 114
326.713470 726.899841 376.713440 130 123 122
342.221344 707.929932 371.137573 81 77 75
317.551056 763.865173 377.477844 202 196 200
338.320984 746.531616 378.246704 154 146 145
336.968994 760.853394 372.324768 137 124 117
349.947479 711.925110 334.027557 97 88 82
372.746002 751.220032 322.079193 144 136 135
367.141663 743.308899 336.903168 88 79 73
375.618866 763.964050 354.211426 113 104 100
353.226166 732.167542 371.935822 173 163 161
270.854065 791.514160 94.138809 65 63 63
273.752472 821.965637 105.568306 133 119 112
291.582977 823.610840 109.351814 103 92 84
280.915619 828.700928 115.889603 108 96 87
298.135376 797.629883 118.620804 132 125 123
290.894684 803.487854 100.812462 109 98 91
294.967468 818.542297 112.098969 105 92 81
287.244019 821.529602 127.081078 92 85 82
314.585938 805.028320 131.990860 151 137 128
323.607391 769.910767 132.884613 52 49 49
297.603973 827.396240 129.957550 58 54 55
260.267456 821.193298 244.431366 89 82 79
271.382660 816.143127 246.771332 97 94 94
270.339935 823.322021 245.397400 53 50 50
267.833435 835.296997 138.197693 79 74 73
275.204987 836.607605 134.508957 85 81 82
280.377228 852.479431 143.087555 142 129 122
287.849915 856.938721 171.771225 62 52 54
257.179016 866.990662 170.979797 145 135 132
262.591705 874.145874 189.610535 109 101 99
299.767303 838.098083 132.663513 152 140 135
302.459351 831.070618 132.250717 134 123 120
297.997314 843.568909 150.207870 172 156 146
311.641205 831.205750 157.494400 116 110 109
301.769592 852.563416 171.924774 152 138 132
307.750488 839.839233 168.349930 101 93 92
262.614471 861.089539 227.948715 105 93 84
286.148499 839.633240 233.697311 67 59 55
284.865692 843.768738 241.571747 118 110 106
283.023071 846.581360 229.023041 101 94 92
279.450378 851.820557 236.217773 132 125 125
276.751770 845.937134 243.965408 106 94 87
290.843353 846.390991 227.138565 77 68 63
295.060364 858.913452 193.367981 136 119 108
300.074860 856.191162 206.999039 132 119 111
289.186371 851.801086 216.500565 143 132 127
313.467560 840.909973 195.021423 150 137 131
320.010010 842.353699 200.921158 154 142 136
287.627167 843.539001 233.464111 72 63 59
290.456848 848.460876 232.246246 117 104 96
299.411804 833.938599 239.608337 148 135 131
327.420074 830.188904 251.041153 132 114 104
294.876404 869.170349 205.957489 136 121 111
323.818848 789.238708 150.692444 108 98 92
340.175385 764.052429 189.109772 98 91 89
336.604095 784.030945 181.860748 101 92 87
324.262665 809.152466 160.130249 133 123 118
333.022644 812.044678 180.410843 117 109 105
324.494568 827.988586 176.979340 127 115 110
339.757294 768.765259 208.917694 102 96 94
336.750519 828.331604 210.154831 128 116 110
354.434784 770.641479 231.908447 110 103 100
320.667175 832.066223 187.123413 159 146 141
330.559326 834.228699 189.289063 162 150 145
335.864929 830.915222 206.837112 134 118 112
329.985291 838.273926 207.215683 120 103 95
334.170929 836.223145 208.107452 134 121 115
256.796509 953.405151 162.986542 117 106 98
258.049530 953.078613 180.872574 96 90 86
259.369324 952.792114 184.824387 62 60 61
258.839294 894.157593 221.596664 86 77 70
259.613831 917.174805 222.471390 66 60 56
267.532776 909.267761 227.707123 101 89 80
283.641602 938.626221 219.050217 74 70 70
276.582153 946.328674 208.916779 89 83 81
268.106628 929.968506 242.903854 83 74 67
279.810303 942.369568 232.130478 96 91 89
283.840393 957.985168 242.208328 133 122 117
260.256042 967.083069 167.341476 115 104 97
264.558502 973.001831 169.312958 77 72 69
255.595795 994.784485 183.940079 147 134 127
256.337799 998.750610 190.590530 165 150 142
285.663574 968.508667 207.957657 171 157 150
280.439697 982.792542 207.173889 102 90 82
280.945099 971.875427 224.838120 103 91 83
278.092285 972.281494 252.110825 149 136 128
276.423096 977.054321 244.738693 166 150 141
253.097473 995.446960 250.962677 174 165 164
274.795227 779.834412 257.754120 129 120 118
273.236176 769.408203 262.639893 111 104 102
262.391510 796.280151 301.988892 34 34 40
281.733704 803.967957 297.922607 60 54 54
285.674835 791.755798 307.889465 77 68 63
279.792084 829.215515 278.191193 78 71 67
274.726624 833.079956 280.339294 127 118 114
264.129028 814.421265 292.038818 54 49 49
296.719788 795.246521 290.395599 98 88 82
286.889679 813.890137 260.897858 66 59 55
288.763031 805.681030 304.382141 49 46 46
298.132965 804.228149 294.874359 99 90 88
306.606750 803.435364 295.183594 90 83 82
314.165497 804.845093 301.952057 126 119 118
305.895660 807.932800 289.322113 149 137 134
316.575165 803.621094 296.911011 129 122 128
264.774200 783.451721 319.233032 118 106 100
258.559875 815.889160 326.621582 61 65 73
272.039459 826.474304 325.171783 111 112 121
312.512817 788.732117 344.000854 211 203 204
311.556305 778.227966 362.238251 143 115 104
319.453979 780.291809 364.627869 199 190 192
306.265076 773.456726 378.578308 197 191 195
298.169464 805.203064 324.747528 183 142 123
324.735352 785.809631 321.927002 143 134 133
344.664886 788.421082 319.386902 167 158 157
341.132996 802.805908 299.380920 117 102 98
351.655945 808.737793 271.041504 181 167 164
355.449890 801.665955 258.944580 176 158 148
338.980804 792.803833 331.085754 216 206 207
325.930328 792.681946 351.623840 222 214 217
336.790558 787.913391 359.857788 224 215 219
370.351929 775.180969 323.187897 135 125 121
345.332855 779.702454 341.403259 129 116 116
369.750336 776.043274 330.681091 114 107 105
255.460220 953.626587 286.750397 159 157 163
283.676056 945.191223 263.211548 144 131 124
277.931366 954.052612 259.334351 146 134 126
123.765091 26.561140 198.673584 113 104 101
156.419922 0.743333 118.539276 78 74 74
167.434830 3.792069 117.878204 76 73 72
189.874664 10.568503 107.840256 80 75 73
181.154007 10.069180 123.279953 78 74 72
192.651138 9.823306 125.450417 81 76 73
177.691330 31.638653 91.850075 106 101 100
185.432587 31.798952 81.392464 98 94 93
185.975113 65.661621 71.752136 71 67 66
186.956070 118.892624 78.681122 90 89 90
167.432495 123.203705 98.724625 94 92 93
162.798767 118.481544 114.958145 123 119 120
222.252792 10.661051 55.945633 61 57 55
209.580017 7.492306 68.198990 55 52 52
209.761276 9.136557 86.170486 74 69 68
196.485901 10.072271 105.554787 80 75 74
200.811081 15.405253 101.261368 75 70 68
218.829742 28.280409 111.503120 65 61 59
239.597244 11.461791 87.017349 80 73 69
227.440964 12.140981 108.285347 57 54 53
224.309006 99.657448 71.682121 93 90 91
217.218414 109.788223 68.687973 99 95 95
240.476471 100.611145 81.963867 131 124 124
239.103561 65.587128 84.127579 108 100 97
245.323990 73.841309 99.916916 85 80 78
245.179413 82.606651 97.878792 90 83 79
237.723511 105.456100 102.200737 88 80 77
159.191483 9.728020 140.901016 79 75 75
150.945618 4.968746 184.025238 83 77 73
170.306000 7.506942 139.912949 91 85 83
164.152649 5.571502 140.306290 84 79 78
168.899399 9.016735 147.011093 108 100 97
162.812164 5.637565 162.387100 109 100 96
166.790756 12.355819 165.528885 117 107 102
168.589859 11.562034 183.213684 117 108 103
183.230484 17.994268 160.446991 120 111 106
174.922318 60.409100 147.103210 129 117 109
146.041885 10.570753 199.737991 74 68 64
140.700821 38.658428 195.391968 169 156 151
172.242462 13.810690 194.802628 115 106 102
171.308929 26.764809 200.896683 149 137 131
187.624390 108.717506 148.228012 114 108 108
202.579224 24.907944 150.224396 86 79 76
191.677307 18.809345 163.398071 122 115 112
210.383240 38.371162 139.464584 91 83 78
192.681091 84.428627 147.063858 79 75 74
196.463394 91.445877 156.338684 103 97 96
161.282883 131.979858 104.350281 111 106 106
154.327347 207.446594 121.405319 110 105 105
182.342621 196.701096 75.238342 120 117 119
163.602951 206.234436 96.509842 128 124 125
156.470612 208.322998 110.883598 98 92 91
172.971268 245.812668 83.727730 112 109 110
161.067749 254.689453 100.525764 120 118 120
244.854111 153.082352 106.024467 89 83 79
235.737503 153.222794 100.522552 70 65 62
239.161438 166.566132 89.636635 112 105 102
231.790512 185.918823 88.186134 120 115 114
230.701874 241.639923 108.186783 123 116 115
161.612289 141.380753 132.052719 110 106 106
169.914413 153.747391 138.664108 108 99 94
153.984619 216.373795 125.515205 103 98 97
153.617355 219.829758 133.133286 109 103 100
151.833740 222.940353 152.794098 113 106 104
135.758621 250.406143 154.453827 110 104 102
205.011215 142.164459 154.490936 80 72 68
215.321213 150.686356 164.802612 98 93 93
200.236588 169.575699 151.904907 111 104 102
216.671066 188.108337 161.894104 91 87 86
227.451538 156.469345 145.411423 84 81 80
222.196915 175.534363 163.788071 122 117 117
221.221100 209.940475 163.479477 76 70 66
234.568039 190.781693 151.650970 103 98 96
225.348892 215.523697 169.071884 114 109 109
237.346588 211.914398 156.603363 97 89 85
249.282761 252.979553 275.715637 126 120 119
127.493301 384.125641 122.113159 91 86 85
119.607323 385.752991 161.946243 116 111 110
110.157501 357.389160 171.184952 102 95 92
116.664139 365.069702 172.996872 111 104 101
122.022980 356.161255 181.789902 92 83 77
119.648819 408.163849 112.884979 115 109 108
120.643600 500.532654 124.877792 114 111 114
109.300323 435.550018 168.615723 133 128 130
111.845230 449.442993 177.857147 132 126 126
108.758583 481.203064 138.241318 126 123 126
111.748817 476.900116 183.165543 120 111 107
103.541641 491.804657 153.088837 128 124 126
116.332199 491.252167 161.168732 127 121 121
106.523788 502.556091 159.027863 140 136 139
108.992958 482.034729 164.979385 136 130 131
155.785339 331.120911 119.450485 76 70 66
134.325226 367.457642 127.245728 84 80 79
185.202438 362.624023 98.334671 102 99 100
183.624161 371.429169 96.481300 112 107 107
208.179626 296.570587 94.554749 111 107 108
221.633682 255.407242 112.675438 117 111 110
227.033997 267.496643 112.249741 73 65 60
225.217773 265.014343 119.210205 79 75 75
210.393677 351.681610 103.189117 96 91 90
140.089233 272.898376 165.483948 109 103 100
148.281174 318.370483 176.361725 110 105 105
161.651794 315.181519 188.683701 119 112 111
141.406036 332.556732 193.268311 89 77 68
169.076935 339.162048 201.885559 81 71 63
177.434601 380.340515 194.939926 84 79 79
220.261932 275.694214 163.711502 77 71 68
223.536575 306.579041 145.246078 85 81 79
204.521240 303.855865 182.856766 80 75 73
220.663361 296.891235 143.077728 98 94 94
227.569214 311.290649 140.001358 98 94 94
227.051941 337.361298 161.672791 84 81 81
200.130524 358.484314 188.679138 63 59 56
209.322815 383.711975 189.020493 83 80 81
219.425583 362.166840 181.286118 55 51 49
244.536636 371.016998 153.476929 98 94 93
233.491714 372.715942 219.566025 80 77 78
163.734985 510.678375 63.149574 103 96 92
142.205063 476.761353 100.640900 110 107 108
146.871658 500.451569 80.768402 105 97 93
132.478058 497.890869 105.174988 105 101 101
182.450378 461.274628 85.146301 111 108 109
199.980972 389.910797 90.608635 135 130 129
208.184341 396.821869 92.048904 79 75 75
200.541122 436.132599 75.588684 79 70 63
228.052002 401.468475 119.259239 131 125 125
236.094757 440.735474 117.550758 126 122 123
204.925842 465.900360 86.199875 107 104 106
220.584534 473.197937 89.832405 122 117 118
202.613663 483.809357 79.312485 80 73 69
229.025238 467.011841 101.471367 123 118 119
228.881073 476.048920 96.899643 106 100 99
236.037842 471.479584 101.561440 113 109 109
152.338303 405.178467 208.521774 129 124 124
130.055023 425.945923 206.394012 134 128 129
152.379074 432.319489 213.714645 109 104 103
147.954239 438.651276 209.987488 133 128 130
164.263275 399.366730 202.203384 134 129 130
158.187714 436.888641 214.885284 115 108 105
139.638092 496.072052 214.428055 115 110 109
168.816925 454.963348 218.738419 111 103 99
239.494553 399.699158 145.231766 91 86 85
241.451218 435.831909 132.118729 61 57 56
202.168533 380.890381 199.201675 83 81 82
209.254959 404.702240 239.910477 80 78 78
195.551041 436.141235 211.115448 108 105 108
219.354675 419.331848 208.830185 85 82 83
232.983856 388.606262 215.722748 72 66 63
239.066788 334.822632 288.805542 94 81 69
247.515106 336.862701 286.723663 91 79 68
242.509247 351.262970 288.513550 138 132 133
246.058655 414.797180 295.137756 121 117 118
200.228226 474.577759 258.167053 142 134 134
232.592194 477.929718 270.025543 126 115 110
242.838058 473.199615 273.871948 140 130 126
229.273712 505.939087 262.811249 150 145 147
241.884598 498.864471 411.600159 79 80 85
248.492523 487.869720 415.976074 139 139 146
323.101379 74.016716 232.220062 87 84 85
316.785065 88.545609 236.800140 100 96 95
292.244690 124.601875 240.248703 95 92 94
331.813416 12.668210 216.893158 64 61 60
337.708130 6.272026 220.228592 62 59 58
343.198181 9.652703 228.439484 71 66 65
345.927216 13.745489 227.519028 52 50 50
341.709320 6.321071 241.147964 93 85 82
344.050842 7.679690 257.977203 68 63 62
357.458649 10.901357 215.840347 40 40 41
352.788391 9.715180 249.125748 81 76 73
385.498871 22.737160 234.876266 129 120 116
364.089905 54.310368 218.519302 80 75 73
336.279358 80.480614 204.530930 81 78 77
344.662628 73.511292 197.562515 92 85 82
323.134613 105.382721 212.140411 86 83 83
342.386810 125.714417 215.413055 61 58 56
359.070923 74.089020 206.959290 101 95 92
351.677643 104.175598 206.917130 82 79 79
268.663574 176.764435 245.240845 118 113 114
266.391632 179.278305 245.494492 110 107 108
319.363342 150.897324 216.146164 73 70 70
311.475769 151.099197 211.438202 85 82 83
260.627319 196.626724 248.338745 94 89 87
305.208740 211.848053 218.373978 92 89 89
293.934082 244.743500 223.791489 90 87 87
324.261078 137.981842 217.351852 79 76 77
347.170074 142.800995 209.180649 106 101 101
323.375122 169.013718 212.049423 89 85 85
320.991699 174.491684 212.241150 71 65 61
363.500946 145.058044 256.693970 122 118 119
365.065155 160.090164 232.171951 109 102 99
320.194427 211.228348 209.359497 72 65 61
344.911407 216.758530 216.986282 109 105 105
350.865173 236.900406 225.019653 125 120 120
362.712524 213.109940 258.179596 124 114 110
300.898529 118.199127 268.571472 96 92 92
318.587616 122.093155 273.258301 68 63 62
344.533936 11.021613 277.693146 72 67 65
322.280121 26.823090 280.660339 96 90 88
338.874847 7.735903 294.087585 88 81 77
343.328064 10.522985 297.446411 87 81 77
325.109314 60.361248 291.484589 113 102 97
350.391785 48.350124 308.860657 173 157 148
365.089325 8.953322 277.168640 79 74 72
354.738434 10.700527 289.869659 104 97 93
362.623718 11.639126 310.407013 115 106 102
382.813141 35.835693 271.869293 119 108 101
337.291595 8.628974 332.235779 81 72 66
320.633942 20.482590 337.569855 90 80 73
337.909576 10.110248 331.868073 78 70 64
336.534546 11.168430 378.937561 79 71 65
342.275513 30.758801 360.559143 175 161 154
375.440582 22.215168 351.258759 130 117 110
354.464722 32.840260 354.573975 181 169 164
353.762299 35.243294 365.465668 167 153 146
324.663147 69.922951 277.660614 89 78 70
322.107819 109.396523 283.472809 95 89 87
361.039001 85.818993 285.615356 131 124 123
377.989075 61.539635 251.055374 131 125 125
349.125153 107.765221 278.469910 126 121 122
364.216309 127.126724 276.606476 120 115 116
368.055786 110.165314 262.352753 124 118 117
302.863861 141.884598 279.446136 88 78 72
263.691193 224.878265 263.694244 112 106 105
266.981018 250.802673 309.637329 93 88 86
275.261139 247.670898 306.113861 95 90 88
347.823975 212.824966 278.538696 109 101 97
358.513550 202.716141 258.659271 120 115 114
357.743317 214.146103 265.055969 144 138 140
378.250458 28.193144 317.688599 137 124 116
389.286285 21.824686 337.925476 122 111 105
290.530914 277.603729 216.582413 96 92 93
286.428314 269.824188 233.172562 68 64 62
315.360077 287.497864 223.173004 98 92 90
293.448181 349.214630 194.824707 117 114 115
330.187683 271.097565 230.848526 123 113 106
350.021057 271.072479 243.696198 114 104 99
320.484497 344.415894 237.066147 96 88 84
330.008362 363.894684 236.858582 129 124 125
333.460480 375.814117 248.938599 139 134 135
269.891571 482.352661 124.788818 137 133 133
268.167847 436.254120 147.908844 91 84 80
312.470795 435.686401 179.746109 105 100 98
270.593048 458.287689 135.500015 119 115 116
317.998474 514.666382 201.823303 106 97 91
317.707703 516.546814 204.192734 143 134 132
323.008026 423.065155 183.237061 90 83 80
336.638947 399.214966 240.425446 127 120 119
331.913116 466.661072 207.672592 108 99 93
331.452606 457.513245 237.482437 107 98 92
331.962341 470.038971 252.741501 100 89 80
254.463608 301.622375 303.665771 129 121 120
305.816437 321.492249 308.800140 162 155 156
292.097198 279.525055 319.785889 120 111 107
278.367340 341.652893 308.569244 114 97 83
283.313873 337.607269 306.657074 115 98 84
296.274658 329.570313 309.913513 116 99 83
313.344238 329.849609 304.423706 118 101 85
313.928558 340.082245 301.060211 112 96 81
323.179993 344.912506 304.228760 116 100 85
338.134766 336.505188 276.219574 92 81 73
335.326355 351.014130 274.698273 112 102 97
279.510712 458.974701 286.545624 143 132 129
282.084900 464.808258 284.205933 139 127 121
294.699005 461.498566 289.088165 141 130 124
317.896820 459.119293 273.327972 92 81 72
326.922668 384.205292 288.388245 124 118 116
321.181732 421.019196 280.406311 160 153 152
120.949280 544.373596 101.783195 78 75 75
106.540108 545.088623 118.292229 85 81 79
122.010529 591.950928 118.383720 35 35 36
111.561455 623.086853 82.421021 46 51 56
103.346382 622.923645 101.188187 68 74 82
125.188118 623.428589 98.690765 43 44 48
44.441864 639.939697 149.544586 88 86 88
106.763855 521.307861 164.949661 97 89 84
110.100586 547.969177 158.989029 124 119 120
115.074135 550.379639 160.645844 118 113 113
122.150024 522.285767 198.062622 135 130 131
77.969238 639.318115 186.285019 92 88 88
110.197128 574.045105 139.626373 47 43 41
112.612663 581.330750 169.727646 49 50 54
121.386665 614.724792 240.430252 92 85 82
54.434994 744.348083 112.698921 116 108 105
94.839027 692.473633 115.722420 92 88 89
124.861244 667.446594 116.333603 87 84 85
120.468376 690.746765 109.177849 84 81 81
131.228210 701.309875 94.164131 99 94 92
123.739586 725.975464 108.866760 56 57 60
115.562492 741.734314 102.221603 95 92 92
28.438402 676.388855 168.708389 129 124 124
32.761078 648.957825 147.840286 105 101 100
40.658878 690.405762 186.629807 131 122 121
35.832775 712.004272 175.430252 132 124 121
42.681236 717.959351 180.509430 158 150 148
50.275848 708.903748 183.782364 79 70 66
56.538567 743.143311 167.208023 132 124 122
86.297897 685.927612 139.123474 63 63 65
93.496284 657.913574 188.301407 56 55 56
100.839066 676.039063 177.302368 59 57 57
114.828056 652.711731 160.615509 80 78 80
117.034187 651.787354 184.980545 91 87 86
64.255516 696.702942 217.730392 134 101 94
87.527695 699.352356 242.661407 150 123 106
109.953896 652.157715 210.456650 87 81 78
117.639404 647.024658 249.270020 100 91 86
110.105797 665.933655 227.023926 59 56 56
70.847496 731.881226 181.776825 100 92 91
91.611038 731.184509 190.696487 70 60 57
89.271667 738.237000 185.453751 101 89 80
91.302757 753.193298 180.589935 121 113 109
87.240242 762.606628 177.012421 135 128 126
88.562927 763.198242 182.748276 120 108 101
110.269272 711.675537 126.273659 62 61 63
103.141426 706.841248 205.148636 93 80 70
109.723007 729.921936 198.277496 119 110 108
133.936737 557.994934 67.827126 102 94 89
134.558746 566.395691 93.360367 56 52 50
175.012451 584.763367 60.353519 97 90 85
146.295639 609.787598 90.601517 117 105 96
172.612595 617.611755 83.169693 94 86 80
197.369827 534.551331 39.114429 90 86 84
210.546951 510.841675 44.155930 102 94 90
221.631454 535.884033 52.942924 106 96 91
225.144470 542.919312 57.825573 93 84 76
219.504669 551.213196 52.880932 65 59 55
233.121414 557.039429 78.537682 57 61 67
244.986099 546.784729 93.625916 90 78 68
187.468506 599.322998 51.392967 115 105 99
202.526062 623.709167 58.918102 70 64 60
218.425644 575.394897 75.142204 54 59 65
238.928589 599.551331 90.833511 75 69 65
225.913834 625.873535 105.988480 54 53 55
234.708740 615.449646 96.653664 68 63 61
233.118118 620.821167 98.828491 45 44 44
181.873337 521.208801 237.016983 132 127 128
179.546555 528.299561 235.437576 149 144 146
161.241791 558.382263 224.117798 46 47 50
183.944946 562.002197 236.690460 98 93 93
177.667450 555.471680 233.984940 56 56 59
191.046265 562.643127 246.003128 55 54 55
132.349060 604.658936 126.191406 88 82 80
131.612991 611.508423 163.771530 107 101 101
131.155762 623.711060 186.418259 76 73 72
142.997787 596.626282 213.790863 102 95 91
203.207245 523.264771 247.416687 141 135 136
222.153748 533.151367 252.533051 132 127 128
227.248184 558.313599 244.687805 118 113 114
237.253113 557.308167 249.385147 139 134 136
205.769806 606.693542 247.528122 120 117 119
163.543945 660.106628 86.322876 108 102 101
