ply
format ascii 1.0
element vertex 1106
property float x
property float y
property float z
property uchar red
property uchar green
property uchar blue
end_header
201.000000 513.000000 249.000000 137 131 132
194.000000 546.000000 237.000000 143 138 140
208.000000 569.000000 255.000000 57 60 66
223.000000 560.000000 245.000000 112 109 109
216.000000 564.000000 252.000000 55 55 56
225.000000 529.000000 254.000000 143 139 141
236.000000 537.000000 255.000000 122 113 110
202.000000 593.000000 253.000000 57 58 61
218.000000 608.000000 249.000000 117 113 113
218.000000 613.000000 252.000000 127 123 124
230.000000 599.000000 249.000000 121 115 115
190.000000 698.000000 59.000000 86 82 81
134.000000 688.000000 100.000000 96 91 91
171.000000 650.000000 76.000000 91 86 85
176.000000 644.000000 81.000000 57 56 58
185.000000 762.000000 57.000000 71 66 65
136.000000 724.000000 89.000000 110 104 103
140.000000 728.000000 90.000000 59 56 56
144.000000 761.000000 83.000000 108 104 103
168.000000 709.000000 76.000000 95 89 87
166.000000 726.000000 75.000000 85 81 80
205.000000 646.000000 51.000000 109 103 102
212.000000 649.000000 49.000000 111 105 103
215.000000 655.000000 57.000000 93 86 83
210.000000 657.000000 43.000000 108 102 100
212.000000 643.000000 80.000000 64 61 60
234.000000 662.000000 74.000000 81 73 68
222.000000 712.000000 55.000000 90 84 81
225.000000 731.000000 67.000000 107 102 102
228.000000 740.000000 70.000000 100 95 94
142.000000 762.000000 230.000000 88 81 77
142.000000 759.000000 253.000000 112 114 121
148.000000 743.000000 237.000000 94 84 78
155.000000 743.000000 250.000000 86 80 80
121.000000 658.000000 283.000000 42 43 45
107.000000 704.000000 259.000000 152 121 106
134.000000 581.000000 309.000000 102 104 111
136.000000 577.000000 304.000000 68 72 79
157.000000 639.000000 300.000000 89 88 91
172.000000 629.000000 277.000000 91 87 87
188.000000 617.000000 281.000000 102 98 97
175.000000 608.000000 313.000000 95 93 94
171.000000 625.000000 312.000000 54 55 59
173.000000 637.000000 304.000000 67 67 70
183.000000 609.000000 318.000000 52 43 56
180.000000 636.000000 305.000000 55 55 59
165.000000 633.000000 329.000000 138 133 134
188.000000 613.000000 342.000000 98 99 105
222.000000 574.000000 359.000000 49 49 51
210.000000 568.000000 371.000000 99 99 104
236.000000 570.000000 375.000000 77 75 76
222.000000 617.000000 287.000000 105 101 101
192.000000 635.000000 316.000000 90 88 90
225.000000 616.000000 281.000000 79 78 79
233.000000 624.000000 285.000000 103 97 96
208.000000 593.000000 348.000000 56 57 60
196.000000 632.000000 320.000000 99 96 98
229.000000 599.000000 351.000000 59 59 62
223.000000 553.000000 400.000000 87 89 96
241.000000 535.000000 407.000000 120 120 126
239.000000 566.000000 389.000000 115 116 121
237.000000 574.000000 386.000000 99 99 104
131.000000 662.000000 261.000000 73 69 67
141.000000 658.000000 311.000000 76 71 69
150.000000 647.000000 306.000000 96 88 85
154.000000 643.000000 304.000000 81 75 72
166.000000 689.000000 276.000000 66 62 60
178.000000 686.000000 310.000000 97 96 100
179.000000 647.000000 323.000000 81 82 87
140.000000 710.000000 282.000000 168 163 165
146.000000 706.000000 288.000000 166 157 156
151.000000 743.000000 258.000000 65 65 70
162.000000 709.000000 271.000000 109 100 96
168.000000 713.000000 274.000000 107 101 100
184.000000 739.000000 290.000000 96 102 112
193.000000 644.000000 289.000000 96 92 93
198.000000 642.000000 316.000000 84 83 86
223.000000 676.000000 300.000000 100 93 89
210.000000 697.000000 304.000000 86 87 93
233.000000 658.000000 292.000000 108 100 96
237.000000 684.000000 305.000000 90 79 72
255.000000 683.000000 303.000000 80 74 71
195.000000 650.000000 338.000000 76 76 80
196.000000 664.000000 333.000000 104 104 108
199.000000 665.000000 340.000000 90 90 96
208.000000 653.000000 348.000000 62 63 67
207.000000 687.000000 322.000000 64 70 78
219.000000 672.000000 333.000000 62 63 68
195.000000 723.000000 265.000000 59 55 54
192.000000 708.000000 308.000000 112 112 118
199.000000 724.000000 289.000000 92 89 90
237.000000 731.000000 274.000000 84 77 74
226.000000 726.000000 290.000000 129 121 120
240.000000 743.000000 284.000000 100 88 82
251.000000 767.000000 280.000000 98 90 87
85.000000 798.000000 119.000000 135 130 130
81.000000 799.000000 125.000000 109 102 101
87.000000 804.000000 118.000000 134 128 128
102.000000 797.000000 101.000000 118 113 113
100.000000 812.000000 109.000000 135 128 128
59.000000 772.000000 155.000000 144 136 135
111.000000 820.000000 179.000000 108 99 95
118.000000 827.000000 176.000000 172 161 161
109.000000 840.000000 147.000000 164 153 150
113.000000 832.000000 167.000000 163 153 151
186.000000 776.000000 58.000000 90 84 80
141.000000 777.000000 84.000000 115 109 108
152.000000 790.000000 82.000000 126 119 119
132.000000 818.000000 93.000000 102 96 93
162.000000 802.000000 80.000000 104 96 93
184.000000 819.000000 88.000000 57 54 55
156.000000 835.000000 93.000000 49 51 56
142.000000 854.000000 118.000000 50 51 55
146.000000 833.000000 102.000000 119 112 111
146.000000 859.000000 104.000000 153 149 151
160.000000 839.000000 84.000000 45 47 52
190.000000 839.000000 95.000000 85 77 76
179.000000 851.000000 92.000000 54 56 62
174.000000 860.000000 101.000000 51 53 58
176.000000 862.000000 106.000000 92 88 88
187.000000 854.000000 111.000000 115 108 108
201.000000 770.000000 55.000000 109 99 94
207.000000 783.000000 58.000000 85 77 72
218.000000 828.000000 98.000000 114 105 100
234.000000 789.000000 82.000000 113 110 111
248.000000 790.000000 87.000000 99 94 92
234.000000 813.000000 89.000000 54 52 53
246.000000 818.000000 94.000000 158 149 147
230.000000 825.000000 96.000000 142 130 125
246.000000 822.000000 99.000000 139 124 116
254.000000 828.000000 123.000000 122 114 111
211.000000 850.000000 124.000000 166 157 155
229.000000 836.000000 119.000000 154 144 141
237.000000 837.000000 122.000000 159 150 149
153.000000 788.000000 255.000000 53 55 62
139.000000 808.000000 198.000000 85 77 74
128.000000 810.000000 219.000000 53 54 57
185.000000 818.000000 236.000000 125 112 106
135.000000 844.000000 183.000000 125 115 110
142.000000 851.000000 180.000000 166 153 148
137.000000 865.000000 151.000000 119 102 93
149.000000 873.000000 155.000000 152 138 129
173.000000 862.000000 188.000000 114 102 94
190.000000 889.000000 162.000000 111 101 96
146.000000 832.000000 197.000000 133 123 119
176.000000 857.000000 200.000000 111 100 94
188.000000 859.000000 209.000000 132 101 94
190.000000 832.000000 230.000000 123 111 105
186.000000 893.000000 231.000000 95 88 84
199.000000 800.000000 253.000000 116 105 99
206.000000 810.000000 244.000000 58 54 53
220.000000 831.000000 234.000000 54 48 50
224.000000 799.000000 255.000000 119 109 105
211.000000 864.000000 142.000000 140 131 129
208.000000 884.000000 155.000000 118 106 104
245.000000 883.000000 177.000000 130 97 93
241.000000 891.000000 177.000000 100 77 69
193.000000 851.000000 213.000000 124 92 87
205.000000 835.000000 252.000000 76 71 68
246.000000 867.000000 215.000000 123 95 86
226.000000 878.000000 247.000000 117 89 90
189.000000 940.000000 168.000000 52 54 57
178.000000 921.000000 217.000000 117 97 89
189.000000 907.000000 244.000000 132 116 106
182.000000 915.000000 231.000000 140 114 103
185.000000 917.000000 240.000000 137 117 108
171.000000 941.000000 226.000000 146 109 103
188.000000 982.000000 166.000000 136 128 126
179.000000 991.000000 180.000000 164 151 146
157.000000 977.000000 218.000000 112 105 103
161.000000 982.000000 225.000000 166 154 150
171.000000 998.000000 219.000000 164 151 146
201.000000 907.000000 169.000000 107 87 83
195.000000 951.000000 151.000000 111 104 102
213.000000 944.000000 159.000000 59 58 59
239.000000 901.000000 177.000000 81 71 62
234.000000 917.000000 171.000000 56 54 55
239.000000 912.000000 176.000000 61 59 59
249.000000 908.000000 186.000000 90 81 76
233.000000 931.000000 168.000000 58 56 56
236.000000 938.000000 164.000000 40 41 45
254.000000 901.000000 207.000000 87 74 63
193.000000 990.000000 170.000000 133 123 120
192.000000 1007.000000 180.000000 103 96 93
216.000000 1009.000000 179.000000 125 112 104
227.000000 990.000000 163.000000 160 151 147
246.000000 1003.000000 183.000000 177 162 153
250.000000 995.000000 179.000000 154 139 130
219.000000 1011.000000 246.000000 207 189 180
239.000000 1014.000000 227.000000 217 199 190
254.000000 1000.000000 253.000000 184 171 164
219.000000 782.000000 266.000000 55 47 41
216.000000 787.000000 263.000000 88 80 76
221.000000 831.000000 262.000000 38 39 43
236.000000 830.000000 256.000000 41 44 48
248.000000 821.000000 276.000000 44 44 47
254.000000 825.000000 316.000000 190 165 157
223.000000 845.000000 285.000000 102 94 97
210.000000 849.000000 262.000000 104 96 93
226.000000 853.000000 280.000000 120 108 102
245.000000 860.000000 276.000000 127 113 104
234.000000 868.000000 258.000000 57 55 55
173.000000 944.000000 257.000000 109 103 103
211.000000 915.000000 263.000000 164 142 132
211.000000 936.000000 283.000000 61 59 59
238.000000 922.000000 266.000000 150 132 120
243.000000 919.000000 264.000000 133 114 104
251.000000 942.000000 295.000000 84 79 77
236.000000 978.000000 286.000000 177 161 151
237.000000 971.000000 291.000000 183 167 156
252.000000 976.000000 292.000000 140 130 131
236.000000 998.000000 269.000000 187 170 159
263.000000 526.000000 102.000000 98 87 79
279.000000 528.000000 111.000000 98 87 78
269.000000 559.000000 106.000000 96 91 93
296.000000 546.000000 125.000000 95 83 73
296.000000 554.000000 125.000000 94 82 72
291.000000 563.000000 122.000000 112 109 110
285.000000 589.000000 104.000000 51 53 58
260.000000 618.000000 119.000000 71 68 69
265.000000 637.000000 121.000000 65 65 67
287.000000 619.000000 124.000000 35 36 39
281.000000 628.000000 125.000000 56 55 56
295.000000 616.000000 109.000000 104 97 92
301.000000 559.000000 133.000000 96 87 81
316.000000 555.000000 171.000000 75 71 71
268.000000 562.000000 246.000000 160 155 157
282.000000 565.000000 239.000000 159 153 154
301.000000 583.000000 145.000000 78 77 79
318.000000 580.000000 167.000000 120 118 120
307.000000 634.000000 158.000000 63 60 58
309.000000 628.000000 165.000000 70 67 68
316.000000 628.000000 183.000000 87 80 76
278.000000 628.000000 253.000000 89 84 82
316.000000 589.000000 232.000000 113 103 96
308.000000 607.000000 231.000000 52 53 57
298.000000 618.000000 222.000000 132 123 119
315.000000 637.000000 210.000000 106 96 91
324.000000 541.000000 193.000000 102 95 92
324.000000 546.000000 210.000000 111 99 91
335.000000 575.000000 201.000000 107 97 90
330.000000 562.000000 214.000000 105 96 90
329.000000 590.000000 181.000000 90 82 77
361.000000 606.000000 183.000000 121 110 104
325.000000 599.000000 221.000000 106 95 87
328.000000 596.000000 216.000000 112 100 92
328.000000 601.000000 212.000000 108 96 87
285.000000 658.000000 91.000000 105 99 98
271.000000 648.000000 97.000000 91 87 87
262.000000 684.000000 79.000000 90 84 82
259.000000 698.000000 77.000000 110 103 101
282.000000 687.000000 85.000000 121 115 114
292.000000 670.000000 92.000000 108 101 99
301.000000 686.000000 95.000000 107 101 99
307.000000 703.000000 97.000000 118 112 112
275.000000 724.000000 84.000000 92 84 80
291.000000 714.000000 89.000000 95 87 82
298.000000 719.000000 94.000000 117 110 107
314.000000 722.000000 102.000000 103 96 93
304.000000 762.000000 105.000000 88 82 78
318.000000 653.000000 210.000000 137 130 129
319.000000 663.000000 212.000000 102 91 83
300.000000 660.000000 246.000000 101 92 86
306.000000 685.000000 242.000000 100 94 91
317.000000 701.000000 228.000000 127 119 116
315.000000 742.000000 221.000000 53 50 49
326.000000 658.000000 189.000000 84 74 66
333.000000 683.000000 164.000000 99 87 78
331.000000 690.000000 189.000000 118 109 104
320.000000 640.000000 200.000000 101 88 78
333.000000 724.000000 160.000000 123 114 110
331.000000 732.000000 177.000000 105 99 96
322.000000 736.000000 132.000000 112 101 95
322.000000 758.000000 145.000000 111 102 97
327.000000 757.000000 153.000000 121 113 110
335.000000 764.000000 190.000000 119 110 106
338.000000 759.000000 182.000000 108 97 89
339.000000 752.000000 184.000000 112 101 94
333.000000 724.000000 210.000000 113 103 96
339.000000 734.000000 197.000000 84 76 71
320.000000 710.000000 226.000000 96 90 89
344.000000 765.000000 220.000000 101 95 93
299.000000 523.000000 259.000000 168 162 163
262.000000 623.000000 259.000000 75 74 75
262.000000 659.000000 269.000000 104 97 94
267.000000 688.000000 284.000000 54 53 54
274.000000 693.000000 278.000000 72 69 69
260.000000 684.000000 301.000000 60 58 59
303.000000 696.000000 279.000000 86 81 79
309.000000 699.000000 259.000000 58 57 59
267.000000 716.000000 288.000000 62 59 59
275.000000 739.000000 265.000000 34 35 37
306.000000 730.000000 260.000000 52 51 51
297.000000 752.000000 314.000000 53 51 51
305.000000 740.000000 310.000000 103 96 93
280.000000 756.000000 330.000000 99 90 84
308.000000 728.000000 323.000000 104 98 96
309.000000 727.000000 373.000000 132 129 132
304.000000 736.000000 325.000000 65 61 61
297.000000 763.000000 361.000000 165 141 129
303.000000 761.000000 367.000000 127 101 93
310.000000 758.000000 378.000000 178 171 173
345.000000 734.000000 268.000000 104 99 98
338.000000 731.000000 274.000000 96 93 94
326.000000 726.000000 290.000000 99 95 95
328.000000 722.000000 299.000000 96 91 91
345.000000 739.000000 259.000000 79 74 72
359.000000 731.000000 291.000000 95 88 83
361.000000 732.000000 296.000000 89 82 78
362.000000 731.000000 304.000000 127 122 122
363.000000 756.000000 270.000000 122 115 114
367.000000 767.000000 269.000000 106 98 94
323.000000 718.000000 367.000000 104 100 99
342.000000 761.000000 368.000000 163 153 149
359.000000 723.000000 324.000000 117 111 111
363.000000 725.000000 337.000000 124 117 115
372.000000 749.000000 325.000000 129 122 121
370.000000 746.000000 344.000000 114 104 98
374.000000 752.000000 350.000000 89 81 75
268.000000 778.000000 92.000000 105 99 97
277.000000 773.000000 93.000000 86 79 75
285.000000 777.000000 98.000000 108 101 98
263.000000 831.000000 124.000000 107 99 96
280.000000 824.000000 112.000000 124 113 108
289.000000 770.000000 100.000000 108 101 98
295.000000 797.000000 108.000000 139 129 126
315.000000 772.000000 119.000000 112 105 102
318.000000 826.000000 156.000000 94 86 80
260.000000 861.000000 148.000000 115 106 105
265.000000 859.000000 151.000000 137 124 121
261.000000 875.000000 184.000000 130 120 115
291.000000 840.000000 134.000000 147 134 129
291.000000 852.000000 155.000000 181 170 169
300.000000 851.000000 169.000000 176 163 159
275.000000 857.000000 236.000000 131 123 121
284.000000 854.000000 224.000000 120 108 102
283.000000 850.000000 233.000000 128 118 114
272.000000 854.000000 249.000000 125 116 114
271.000000 869.000000 210.000000 146 135 131
285.000000 874.000000 194.000000 117 106 99
291.000000 855.000000 214.000000 143 134 131
312.000000 839.000000 242.000000 171 159 156
290.000000 871.000000 201.000000 143 128 117
321.000000 793.000000 130.000000 100 95 94
338.000000 787.000000 188.000000 95 87 83
321.000000 821.000000 159.000000 88 80 77
345.000000 770.000000 217.000000 103 94 88
340.000000 794.000000 193.000000 106 98 95
341.000000 799.000000 193.000000 112 106 103
338.000000 831.000000 215.000000 133 122 117
342.000000 828.000000 223.000000 145 130 122
359.000000 782.000000 246.000000 112 106 104
258.000000 939.000000 184.000000 115 91 80
256.000000 898.000000 223.000000 81 73 66
258.000000 923.000000 206.000000 72 63 56
259.000000 924.000000 245.000000 88 77 73
260.000000 937.000000 205.000000 69 61 55
259.000000 977.000000 173.000000 148 137 132
261.000000 1003.000000 210.000000 179 161 150
270.000000 791.000000 258.000000 131 124 123
279.000000 815.000000 294.000000 50 41 35
275.000000 816.000000 291.000000 56 49 45
290.000000 778.000000 267.000000 80 74 71
292.000000 791.000000 284.000000 91 87 87
296.000000 805.000000 304.000000 98 79 64
269.000000 779.000000 335.000000 140 124 113
282.000000 782.000000 346.000000 183 154 142
273.000000 785.000000 341.000000 171 152 140
316.000000 768.000000 374.000000 180 174 178
300.000000 806.000000 328.000000 197 158 140
288.000000 801.000000 340.000000 201 165 150
271.000000 837.000000 287.000000 143 137 138
265.000000 850.000000 276.000000 80 72 71
259.000000 846.000000 296.000000 152 144 144
326.000000 820.000000 270.000000 127 104 101
338.000000 812.000000 282.000000 158 145 156
362.000000 797.000000 268.000000 76 70 67
360.000000 786.000000 274.000000 115 106 103
368.000000 777.000000 313.000000 129 119 114
323.000000 797.000000 333.000000 224 213 212
351.000000 787.000000 335.000000 179 171 171
337.000000 781.000000 359.000000 225 217 220
369.000000 777.000000 331.000000 116 108 105
275.000000 939.000000 267.000000 81 76 74
258.000000 955.000000 313.000000 191 188 196
265.000000 967.000000 280.000000 173 155 143
265.000000 977.000000 271.000000 170 155 145
277.000000 971.000000 256.000000 162 147 137
269.000000 969.000000 305.000000 178 182 197
127.000000 13.000000 181.000000 69 64 61
126.000000 23.000000 191.000000 114 104 99
189.000000 18.000000 75.000000 101 95 92
186.000000 21.000000 83.000000 86 81 80
169.000000 33.000000 100.000000 102 96 94
180.000000 93.000000 91.000000 82 79 79
188.000000 95.000000 80.000000 106 104 106
175.000000 84.000000 124.000000 104 100 100
170.000000 102.000000 101.000000 71 66 63
167.000000 112.000000 116.000000 117 110 109
213.000000 13.000000 62.000000 55 53 52
218.000000 22.000000 115.000000 63 59 56
218.000000 29.000000 120.000000 66 61 59
237.000000 44.000000 95.000000 76 71 68
231.000000 44.000000 109.000000 73 69 66
234.000000 42.000000 103.000000 81 76 74
214.000000 106.000000 66.000000 92 89 90
230.000000 83.000000 72.000000 115 110 110
234.000000 69.000000 115.000000 89 86 86
234.000000 98.000000 120.000000 78 74 73
136.000000 31.000000 163.000000 146 136 132
128.000000 12.000000 193.000000 68 62 58
166.000000 16.000000 204.000000 94 83 76
183.000000 88.000000 142.000000 117 112 113
184.000000 100.000000 142.000000 73 66 61
186.000000 126.000000 132.000000 89 82 77
219.000000 71.000000 140.000000 86 83 83
198.000000 109.000000 150.000000 105 100 99
165.000000 135.000000 98.000000 104 101 101
164.000000 133.000000 120.000000 101 97 98
155.000000 254.000000 111.000000 112 109 111
223.000000 174.000000 77.000000 107 102 101
237.000000 139.000000 99.000000 89 83 80
222.000000 205.000000 79.000000 125 119 118
223.000000 254.000000 97.000000 122 116 114
226.000000 248.000000 120.000000 74 65 58
175.000000 159.000000 140.000000 126 118 117
165.000000 168.000000 130.000000 106 99 97
156.000000 206.000000 135.000000 120 115 115
142.000000 254.000000 149.000000 119 115 116
175.000000 196.000000 144.000000 106 103 104
177.000000 198.000000 150.000000 109 106 107
190.000000 195.000000 158.000000 95 90 90
197.000000 132.000000 144.000000 80 70 63
200.000000 178.000000 150.000000 105 99 98
230.000000 172.000000 163.000000 90 86 84
201.000000 223.000000 177.000000 93 89 89
217.000000 255.000000 181.000000 94 88 85
234.000000 205.000000 133.000000 87 81 77
234.000000 226.000000 168.000000 101 95 93
255.000000 236.000000 273.000000 115 111 112
126.000000 342.000000 183.000000 94 84 76
116.000000 363.000000 159.000000 123 117 116
127.000000 387.000000 113.000000 112 108 108
110.000000 446.000000 125.000000 127 119 117
117.000000 468.000000 117.000000 127 121 120
111.000000 392.000000 153.000000 130 126 129
123.000000 391.000000 138.000000 89 81 77
120.000000 387.000000 148.000000 84 80 80
122.000000 411.000000 145.000000 110 107 108
114.000000 418.000000 188.000000 128 124 125
111.000000 505.000000 145.000000 127 123 125
114.000000 492.000000 181.000000 128 121 120
127.000000 484.000000 200.000000 128 122 123
155.000000 268.000000 113.000000 88 87 90
140.000000 315.000000 119.000000 122 119 121
152.000000 304.000000 113.000000 116 113 115
183.000000 269.000000 86.000000 114 106 102
165.000000 290.000000 109.000000 113 109 110
151.000000 323.000000 114.000000 125 122 123
154.000000 339.000000 122.000000 98 95 95
138.000000 374.000000 109.000000 120 115 114
143.000000 374.000000 109.000000 114 110 111
139.000000 382.000000 105.000000 119 116 117
149.000000 381.000000 97.000000 109 105 105
212.000000 257.000000 83.000000 120 112 108
210.000000 281.000000 91.000000 129 125 126
205.000000 313.000000 99.000000 133 129 132
216.000000 318.000000 109.000000 112 108 108
226.000000 309.000000 123.000000 104 97 94
207.000000 350.000000 105.000000 84 80 78
223.000000 320.000000 115.000000 126 120 120
145.000000 265.000000 135.000000 74 66 60
146.000000 267.000000 181.000000 107 101 98
147.000000 284.000000 186.000000 108 99 94
187.000000 302.000000 193.000000 106 100 99
139.000000 343.000000 136.000000 95 91 92
147.000000 330.000000 128.000000 72 67 65
139.000000 322.000000 175.000000 76 68 62
137.000000 338.000000 190.000000 85 75 66
144.000000 327.000000 183.000000 79 70 63
132.000000 353.000000 140.000000 104 101 103
132.000000 371.000000 202.000000 137 130 130
220.000000 275.000000 141.000000 62 54 47
204.000000 283.000000 188.000000 90 85 85
213.000000 257.000000 183.000000 100 95 93
212.000000 266.000000 184.000000 90 83 78
221.000000 299.000000 148.000000 79 75 74
206.000000 355.000000 187.000000 70 67 66
206.000000 361.000000 188.000000 79 76 76
220.000000 358.000000 179.000000 87 83 82
228.000000 382.000000 130.000000 118 112 112
247.000000 349.000000 222.000000 88 87 88
238.000000 323.000000 254.000000 94 90 90
231.000000 355.000000 243.000000 94 92 93
233.000000 368.000000 228.000000 91 87 87
156.000000 399.000000 86.000000 92 85 82
190.000000 434.000000 84.000000 86 82 82
179.000000 508.000000 52.000000 92 86 84
136.000000 491.000000 107.000000 101 98 98
143.000000 505.000000 104.000000 110 106 107
132.000000 497.000000 113.000000 108 105 105
144.000000 500.000000 104.000000 107 104 105
210.000000 386.000000 88.000000 119 114 113
199.000000 436.000000 85.000000 76 69 66
193.000000 442.000000 81.000000 84 81 82
225.000000 415.000000 112.000000 107 101 100
239.000000 444.000000 121.000000 82 76 72
213.000000 478.000000 89.000000 121 118 120
203.000000 450.000000 101.000000 104 100 100
214.000000 459.000000 107.000000 79 74 73
215.000000 469.000000 102.000000 95 91 92
236.000000 470.000000 99.000000 135 131 133
233.000000 489.000000 91.000000 95 88 84
233.000000 494.000000 90.000000 139 135 137
133.000000 412.000000 207.000000 129 124 125
148.000000 384.000000 207.000000 137 131 132
186.000000 399.000000 205.000000 98 93 92
179.000000 441.000000 215.000000 75 71 70
129.000000 475.000000 201.000000 137 132 133
145.000000 485.000000 210.000000 107 99 96
146.000000 485.000000 215.000000 94 89 87
148.000000 503.000000 216.000000 129 121 120
165.000000 452.000000 214.000000 89 83 81
190.000000 449.000000 221.000000 82 80 82
184.000000 480.000000 239.000000 116 110 110
183.000000 499.000000 243.000000 125 120 121
227.000000 387.000000 177.000000 86 85 87
237.000000 410.000000 176.000000 80 79 81
245.000000 391.000000 191.000000 86 85 88
244.000000 444.000000 129.000000 99 95 94
248.000000 423.000000 167.000000 66 66 68
254.000000 419.000000 161.000000 73 70 69
212.000000 415.000000 199.000000 79 75 73
218.000000 413.000000 195.000000 101 99 101
217.000000 396.000000 232.000000 86 84 85
213.000000 385.000000 252.000000 93 90 90
198.000000 420.000000 203.000000 74 70 70
197.000000 443.000000 214.000000 71 70 72
213.000000 420.000000 199.000000 92 90 92
200.000000 425.000000 239.000000 105 100 100
204.000000 424.000000 232.000000 83 80 81
203.000000 459.000000 254.000000 153 148 150
200.000000 487.000000 252.000000 128 123 124
250.000000 342.000000 296.000000 77 66 55
213.000000 420.000000 262.000000 134 129 131
249.000000 464.000000 431.000000 84 87 96
299.000000 126.000000 237.000000 64 60 58
290.000000 124.000000 246.000000 96 94 95
296.000000 124.000000 240.000000 75 71 69
310.000000 104.000000 233.000000 84 81 82
309.000000 123.000000 228.000000 97 94 94
320.000000 59.000000 244.000000 91 87 88
379.000000 20.000000 251.000000 121 110 104
377.000000 26.000000 250.000000 106 96 88
368.000000 46.000000 217.000000 111 102 98
325.000000 112.000000 219.000000 86 81 80
370.000000 66.000000 219.000000 98 92 88
359.000000 97.000000 211.000000 81 79 79
358.000000 127.000000 206.000000 106 100 99
269.000000 171.000000 246.000000 113 108 108
273.000000 164.000000 254.000000 82 78 77
283.000000 187.000000 236.000000 82 78 78
300.000000 131.000000 237.000000 82 78 76
289.000000 133.000000 241.000000 80 77 77
307.000000 140.000000 231.000000 62 59 57
312.000000 140.000000 226.000000 81 78 79
292.000000 164.000000 235.000000 70 69 70
294.000000 180.000000 224.000000 97 94 94
272.000000 207.000000 247.000000 107 103 103
277.000000 238.000000 243.000000 89 86 87
303.000000 209.000000 216.000000 89 86 85
309.000000 210.000000 213.000000 94 90 90
298.000000 237.000000 221.000000 65 60 57
314.000000 230.000000 213.000000 102 98 97
289.000000 244.000000 228.000000 92 89 89
365.000000 138.000000 219.000000 84 76 70
369.000000 130.000000 238.000000 87 78 71
294.000000 127.000000 263.000000 91 84 80
300.000000 122.000000 264.000000 88 85 86
300.000000 127.000000 269.000000 126 120 119
311.000000 110.000000 278.000000 109 104 104
331.000000 30.000000 275.000000 75 70 66
336.000000 13.000000 281.000000 85 78 74
333.000000 60.000000 293.000000 129 116 107
339.000000 61.000000 294.000000 147 133 125
355.000000 52.000000 307.000000 164 146 135
381.000000 36.000000 290.000000 131 120 114
370.000000 44.000000 313.000000 160 146 138
334.000000 21.000000 371.000000 85 74 66
347.000000 31.000000 374.000000 174 158 149
360.000000 23.000000 372.000000 96 86 78
325.000000 76.000000 275.000000 95 83 75
324.000000 82.000000 272.000000 118 112 111
333.000000 66.000000 289.000000 133 126 125
341.000000 65.000000 292.000000 136 126 123
356.000000 65.000000 289.000000 148 134 125
367.000000 124.000000 257.000000 103 96 93
370.000000 118.000000 256.000000 107 99 96
291.000000 134.000000 260.000000 120 115 115
293.000000 146.000000 267.000000 125 119 119
302.000000 151.000000 279.000000 98 90 86
306.000000 143.000000 281.000000 83 77 74
305.000000 148.000000 281.000000 80 71 65
313.000000 188.000000 277.000000 116 113 115
317.000000 169.000000 289.000000 86 78 75
261.000000 232.000000 279.000000 118 114 115
257.000000 249.000000 265.000000 79 70 64
266.000000 243.000000 256.000000 73 66 60
272.000000 228.000000 289.000000 91 87 86
274.000000 233.000000 300.000000 100 95 94
308.000000 194.000000 282.000000 109 103 101
312.000000 211.000000 292.000000 127 126 129
292.000000 243.000000 312.000000 105 101 101
294.000000 247.000000 315.000000 106 101 100
357.000000 144.000000 270.000000 105 100 100
354.000000 147.000000 278.000000 142 133 131
354.000000 169.000000 284.000000 126 114 107
369.000000 182.000000 260.000000 144 136 135
321.000000 210.000000 289.000000 135 132 135
320.000000 238.000000 304.000000 131 127 128
352.000000 197.000000 277.000000 139 131 130
268.000000 267.000000 241.000000 98 96 97
267.000000 280.000000 239.000000 90 87 86
260.000000 283.000000 245.000000 80 77 76
259.000000 299.000000 243.000000 82 82 83
317.000000 298.000000 227.000000 95 91 90
305.000000 382.000000 185.000000 103 98 98
269.000000 339.000000 201.000000 103 100 100
274.000000 333.000000 206.000000 107 104 105
290.000000 331.000000 203.000000 107 104 105
305.000000 328.000000 204.000000 113 110 112
315.000000 321.000000 214.000000 104 100 100
310.000000 350.000000 201.000000 125 122 123
305.000000 362.000000 196.000000 114 111 112
334.000000 269.000000 229.000000 124 113 106
320.000000 275.000000 226.000000 92 86 83
326.000000 283.000000 228.000000 138 133 134
328.000000 275.000000 229.000000 104 98 97
345.000000 273.000000 244.000000 116 105 99
324.000000 288.000000 229.000000 70 64 62
321.000000 305.000000 226.000000 129 125 127
320.000000 323.000000 227.000000 134 126 125
323.000000 325.000000 239.000000 115 107 104
323.000000 357.000000 221.000000 106 98 93
277.000000 479.000000 124.000000 132 129 131
270.000000 494.000000 116.000000 133 129 129
283.000000 499.000000 121.000000 138 135 137
292.000000 509.000000 124.000000 130 126 126
256.000000 398.000000 176.000000 86 82 81
265.000000 429.000000 151.000000 116 113 115
272.000000 420.000000 157.000000 102 99 99
295.000000 385.000000 179.000000 101 96 96
295.000000 415.000000 169.000000 115 112 112
295.000000 420.000000 168.000000 118 114 115
298.000000 436.000000 164.000000 116 112 112
286.000000 474.000000 134.000000 125 121 122
301.000000 450.000000 160.000000 91 84 80
291.000000 490.000000 132.000000 134 131 134
305.000000 491.000000 149.000000 114 107 104
318.000000 484.000000 180.000000 130 124 123
321.000000 445.000000 173.000000 105 100 98
322.000000 389.000000 202.000000 60 64 70
324.000000 418.000000 200.000000 123 116 113
336.000000 431.000000 252.000000 80 74 77
327.000000 478.000000 252.000000 134 125 122
321.000000 498.000000 212.000000 149 142 143
325.000000 489.000000 236.000000 150 142 140
281.000000 310.000000 317.000000 117 106 100
271.000000 321.000000 303.000000 146 139 139
264.000000 351.000000 304.000000 84 73 63
306.000000 369.000000 306.000000 183 176 179
320.000000 273.000000 309.000000 129 124 124
325.000000 276.000000 305.000000 148 142 143
325.000000 291.000000 305.000000 128 119 115
323.000000 308.000000 305.000000 152 145 145
331.000000 339.000000 284.000000 102 87 72
284.000000 397.000000 305.000000 174 169 172
293.000000 384.000000 308.000000 140 134 134
299.000000 427.000000 301.000000 123 116 115
310.000000 457.000000 280.000000 170 164 167
334.000000 386.000000 273.000000 152 146 146
320.000000 464.000000 269.000000 90 79 72
118.000000 514.000000 127.000000 90 86 85
127.000000 558.000000 75.000000 102 95 92
99.000000 566.000000 119.000000 86 81 79
104.000000 560.000000 114.000000 83 78 76
95.000000 578.000000 119.000000 50 52 56
127.000000 585.000000 73.000000 113 105 100
113.000000 600.000000 92.000000 45 48 53
117.000000 601.000000 89.000000 44 47 52
126.000000 614.000000 87.000000 39 42 46
114.000000 636.000000 88.000000 51 54 59
42.000000 639.000000 174.000000 123 120 121
49.000000 635.000000 175.000000 123 120 121
50.000000 635.000000 195.000000 122 119 121
102.000000 567.000000 135.000000 79 80 83
125.000000 570.000000 191.000000 54 54 56
84.000000 593.000000 129.000000 57 60 64
107.000000 595.000000 138.000000 47 44 43
124.000000 596.000000 148.000000 114 108 107
119.000000 589.000000 172.000000 56 54 56
119.000000 599.000000 162.000000 111 105 103
39.000000 702.000000 124.000000 78 74 73
48.000000 675.000000 124.000000 105 98 94
87.000000 695.000000 117.000000 95 92 92
83.000000 688.000000 122.000000 81 78 79
124.000000 663.000000 121.000000 72 69 70
65.000000 750.000000 118.000000 122 116 116
83.000000 737.000000 103.000000 116 110 110
82.000000 760.000000 110.000000 134 127 126
105.000000 732.000000 109.000000 107 101 98
121.000000 753.000000 102.000000 104 101 101
41.000000 642.000000 146.000000 95 91 91
56.000000 644.000000 149.000000 87 84 85
37.000000 646.000000 183.000000 134 129 130
38.000000 703.000000 175.000000 128 119 117
43.000000 697.000000 191.000000 152 144 144
47.000000 651.000000 204.000000 83 80 80
58.000000 671.000000 220.000000 135 115 99
43.000000 688.000000 199.000000 170 163 165
47.000000 697.000000 197.000000 176 168 169
48.000000 695.000000 202.000000 175 168 170
63.000000 681.000000 226.000000 139 115 97
54.000000 717.000000 185.000000 125 111 104
61.000000 719.000000 186.000000 119 109 104
55.000000 726.000000 183.000000 162 151 149
62.000000 750.000000 175.000000 164 153 150
87.000000 683.000000 130.000000 68 67 68
95.000000 675.000000 149.000000 57 57 59
97.000000 653.000000 191.000000 51 51 52
104.000000 666.000000 184.000000 60 58 58
104.000000 678.000000 157.000000 71 69 70
90.000000 651.000000 206.000000 75 70 68
89.000000 654.000000 213.000000 82 75 71
92.000000 665.000000 239.000000 111 101 95
68.000000 681.000000 231.000000 148 125 108
85.000000 681.000000 247.000000 127 110 96
92.000000 702.000000 243.000000 161 135 118
98.000000 657.000000 210.000000 64 60 60
121.000000 653.000000 224.000000 84 76 70
127.000000 656.000000 255.000000 85 75 68
73.000000 724.000000 190.000000 114 101 93
67.000000 741.000000 185.000000 163 153 150
77.000000 760.000000 179.000000 143 135 135
108.000000 704.000000 137.000000 91 86 85
109.000000 743.000000 184.000000 91 84 80
122.000000 720.000000 231.000000 114 104 98
124.000000 720.000000 244.000000 91 88 89
143.000000 550.000000 63.000000 115 106 101
175.000000 522.000000 50.000000 92 87 85
180.000000 517.000000 44.000000 79 77 77
179.000000 547.000000 43.000000 122 112 106
182.000000 558.000000 47.000000 109 101 96
138.000000 525.000000 71.000000 106 100 97
140.000000 513.000000 83.000000 110 101 95
134.000000 538.000000 67.000000 102 95 93
152.000000 516.000000 64.000000 99 93 90
147.000000 514.000000 89.000000 84 78 74
157.000000 596.000000 55.000000 125 114 107
137.000000 580.000000 65.000000 115 105 100
144.000000 609.000000 110.000000 102 96 95
181.000000 613.000000 65.000000 85 77 71
176.000000 618.000000 95.000000 50 49 50
185.000000 625.000000 77.000000 52 54 59
192.000000 538.000000 35.000000 121 112 109
210.000000 525.000000 46.000000 68 63 61
208.000000 553.000000 32.000000 113 104 99
219.000000 557.000000 56.000000 122 108 98
217.000000 521.000000 67.000000 104 92 83
229.000000 542.000000 85.000000 100 86 73
221.000000 602.000000 84.000000 66 58 52
211.000000 629.000000 84.000000 47 46 47
209.000000 638.000000 82.000000 54 52 51
242.000000 604.000000 98.000000 69 63 59
134.000000 523.000000 209.000000 140 134 134
132.000000 531.000000 206.000000 142 136 137
135.000000 539.000000 207.000000 109 103 101
136.000000 528.000000 207.000000 132 126 126
131.000000 545.000000 201.000000 125 118 117
134.000000 547.000000 204.000000 138 133 134
133.000000 560.000000 200.000000 50 51 54
152.000000 568.000000 225.000000 61 62 66
160.000000 547.000000 221.000000 143 138 140
164.000000 549.000000 223.000000 137 131 131
165.000000 561.000000 229.000000 46 47 50
186.000000 547.000000 234.000000 127 122 122
180.000000 563.000000 238.000000 45 46 49
187.000000 561.000000 238.000000 66 64 64
145.000000 608.000000 202.000000 108 100 97
145.000000 621.000000 213.000000 62 61 61
142.000000 618.000000 253.000000 100 95 94
161.000000 582.000000 230.000000 55 57 61
197.000000 538.000000 240.000000 127 120 118
202.000000 558.000000 241.000000 94 90 90
194.000000 561.000000 242.000000 70 69 70
196.000000 563.000000 246.000000 51 51 52
199.000000 569.000000 252.000000 55 58 63
232.000000 569.000000 254.000000 54 58 63
195.000000 586.000000 253.000000 35 39 44
248.000000 612.000000 247.000000 122 116 116
159.000000 663.000000 84.000000 92 85 82
153.000000 671.000000 88.000000 83 77 74
136.000000 652.000000 102.000000 88 86 87
133.000000 665.000000 105.000000 84 80 80
141.000000 696.000000 92.000000 99 93 90
145.000000 673.000000 92.000000 83 79 77
153.000000 684.000000 85.000000 103 98 97
155.000000 694.000000 85.000000 77 71 69
171.000000 646.000000 98.000000 70 68 68
172.000000 640.000000 104.000000 64 63 64
173.000000 684.000000 77.000000 112 107 105
161.000000 698.000000 79.000000 114 109 109
174.000000 693.000000 75.000000 100 94 91
191.000000 740.000000 49.000000 88 83 81
138.000000 704.000000 92.000000 96 90 88
128.000000 729.000000 103.000000 114 109 109
133.000000 728.000000 97.000000 57 56 58
131.000000 754.000000 91.000000 112 107 106
175.000000 749.000000 74.000000 95 91 91
174.000000 754.000000 74.000000 92 87 85
179.000000 742.000000 70.000000 64 61 61
198.000000 691.000000 47.000000 104 97 95
195.000000 699.000000 51.000000 63 59 59
209.000000 640.000000 99.000000 85 81 80
196.000000 724.000000 49.000000 102 97 97
220.000000 739.000000 66.000000 84 77 75
244.000000 729.000000 74.000000 90 85 84
125.000000 667.000000 263.000000 50 50 51
123.000000 670.000000 303.000000 112 103 100
111.000000 672.000000 258.000000 88 82 79
106.000000 694.000000 271.000000 142 118 105
114.000000 675.000000 272.000000 73 71 72
130.000000 584.000000 304.000000 116 117 123
163.000000 596.000000 308.000000 82 80 81
181.000000 603.000000 318.000000 99 95 95
167.000000 635.000000 277.000000 97 92 91
181.000000 614.000000 278.000000 127 123 124
179.000000 629.000000 282.000000 79 74 72
166.000000 637.000000 309.000000 83 84 89
190.000000 625.000000 319.000000 86 83 85
156.000000 599.000000 321.000000 104 106 112
163.000000 596.000000 326.000000 102 102 108
164.000000 601.000000 326.000000 109 109 115
170.000000 596.000000 331.000000 95 96 102
185.000000 596.000000 323.000000 106 104 108
243.000000 550.000000 257.000000 113 108 109
236.000000 535.000000 382.000000 50 52 55
227.000000 553.000000 371.000000 51 51 54
216.000000 594.000000 256.000000 46 49 54
215.000000 615.000000 285.000000 84 81 80
231.000000 623.000000 265.000000 57 56 58
201.000000 604.000000 335.000000 97 94 96
203.000000 632.000000 326.000000 92 91 94
209.000000 633.000000 348.000000 85 86 91
201.000000 616.000000 354.000000 85 87 95
217.000000 621.000000 360.000000 119 118 122
218.000000 609.000000 369.000000 139 138 144
235.000000 586.000000 369.000000 64 64 66
242.000000 517.000000 408.000000 97 100 107
240.000000 529.000000 411.000000 145 144 150
251.000000 530.000000 403.000000 65 65 68
244.000000 559.000000 389.000000 83 86 93
133.000000 650.000000 271.000000 48 49 52
141.000000 645.000000 267.000000 64 62 61
144.000000 661.000000 313.000000 57 57 59
159.000000 699.000000 285.000000 74 68 66
158.000000 698.000000 291.000000 88 79 76
174.000000 669.000000 313.000000 80 80 84
171.000000 659.000000 321.000000 65 67 73
151.000000 722.000000 264.000000 112 105 103
159.000000 751.000000 267.000000 89 86 88
180.000000 714.000000 285.000000 56 53 53
175.000000 721.000000 290.000000 87 85 87
189.000000 704.000000 312.000000 112 112 117
161.000000 765.000000 272.000000 67 69 74
178.000000 751.000000 285.000000 109 113 122
179.000000 762.000000 259.000000 67 64 63
198.000000 647.000000 290.000000 79 72 68
211.000000 656.000000 295.000000 95 90 88
239.000000 677.000000 292.000000 93 88 87
225.000000 693.000000 307.000000 132 121 116
211.000000 646.000000 323.000000 61 61 63
216.000000 661.000000 324.000000 43 43 44
194.000000 688.000000 321.000000 132 127 127
209.000000 682.000000 326.000000 66 70 77
223.000000 674.000000 355.000000 91 96 106
227.000000 646.000000 364.000000 49 53 58
237.000000 661.000000 362.000000 55 59 67
197.000000 727.000000 273.000000 70 65 63
233.000000 757.000000 277.000000 105 94 87
251.000000 752.000000 268.000000 83 77 74
107.000000 773.000000 100.000000 73 69 68
107.000000 812.000000 104.000000 110 104 104
77.000000 793.000000 157.000000 98 87 85
80.000000 774.000000 173.000000 139 131 129
86.000000 779.000000 174.000000 119 111 108
85.000000 785.000000 173.000000 112 104 101
126.000000 812.000000 185.000000 149 139 136
124.000000 823.000000 182.000000 181 170 169
124.000000 781.000000 202.000000 149 141 141
121.000000 776.000000 224.000000 72 74 80
101.000000 834.000000 135.000000 117 107 102
103.000000 833.000000 154.000000 103 90 81
105.000000 832.000000 159.000000 159 147 144
120.000000 832.000000 168.000000 140 127 124
156.000000 793.000000 80.000000 106 101 100
158.000000 819.000000 92.000000 63 62 64
153.000000 828.000000 96.000000 95 89 89
161.000000 826.000000 86.000000 42 45 49
169.000000 826.000000 82.000000 40 43 47
188.000000 823.000000 92.000000 65 63 64
156.000000 849.000000 90.000000 54 56 62
152.000000 841.000000 100.000000 46 47 51
179.000000 849.000000 85.000000 75 76 80
217.000000 777.000000 71.000000 76 70 67
195.000000 829.000000 95.000000 129 120 117
244.000000 776.000000 83.000000 98 90 85
250.000000 775.000000 85.000000 105 98 96
241.000000 789.000000 85.000000 124 120 121
230.000000 842.000000 124.000000 155 146 145
136.000000 819.000000 186.000000 103 92 92
136.000000 796.000000 215.000000 104 101 102
158.000000 797.000000 237.000000 65 67 74
150.000000 787.000000 246.000000 69 69 73
152.000000 810.000000 213.000000 123 113 112
186.000000 797.000000 247.000000 112 104 101
169.000000 801.000000 235.000000 138 129 128
175.000000 801.000000 237.000000 116 109 107
135.000000 866.000000 146.000000 163 146 139
171.000000 871.000000 132.000000 97 82 84
183.000000 893.000000 172.000000 138 107 108
140.000000 833.000000 192.000000 111 100 95
147.000000 838.000000 196.000000 104 93 88
148.000000 847.000000 194.000000 142 128 118
183.000000 833.000000 224.000000 123 111 106
184.000000 867.000000 207.000000 136 104 98
192.000000 820.000000 239.000000 122 109 103
197.000000 827.000000 234.000000 49 44 45
205.000000 827.000000 230.000000 109 100 98
219.000000 814.000000 238.000000 96 88 86
217.000000 831.000000 229.000000 94 85 80
246.000000 797.000000 253.000000 67 61 59
243.000000 821.000000 249.000000 44 43 44
197.000000 864.000000 136.000000 167 156 152
250.000000 858.000000 139.000000 141 130 127
253.000000 861.000000 143.000000 133 121 115
255.000000 865.000000 159.000000 165 155 152
197.000000 870.000000 219.000000 123 109 101
210.000000 876.000000 247.000000 110 101 96
225.000000 861.000000 251.000000 100 89 82
245.000000 874.000000 210.000000 114 88 81
253.000000 868.000000 211.000000 95 82 77
250.000000 866.000000 243.000000 62 63 67
182.000000 948.000000 157.000000 120 113 112
190.000000 932.000000 177.000000 42 45 49
176.000000 911.000000 214.000000 100 90 83
188.000000 920.000000 255.000000 106 95 88
169.000000 950.000000 225.000000 78 50 49
186.000000 938.000000 252.000000 77 71 71
170.000000 986.000000 191.000000 156 146 143
179.000000 996.000000 187.000000 169 156 151
186.000000 1000.000000 184.000000 169 156 149
161.000000 983.000000 216.000000 164 150 142
167.000000 963.000000 250.000000 99 90 85
183.000000 1007.000000 210.000000 183 170 165
174.000000 999.000000 232.000000 105 101 107
204.000000 931.000000 173.000000 38 41 45
226.000000 927.000000 164.000000 73 70 70
245.000000 899.000000 182.000000 97 83 71
244.000000 944.000000 149.000000 109 103 102
235.000000 940.000000 171.000000 42 42 45
255.000000 924.000000 193.000000 119 97 83
250.000000 907.000000 245.000000 141 119 103
212.000000 981.000000 159.000000 138 129 125
202.000000 981.000000 160.000000 140 130 125
243.000000 993.000000 171.000000 158 146 140
196.000000 1013.000000 194.000000 140 126 118
164.000000 773.000000 272.000000 104 107 114
178.000000 779.000000 259.000000 96 93 94
239.000000 778.000000 262.000000 92 86 84
232.000000 790.000000 259.000000 99 91 88
247.000000 780.000000 259.000000 119 112 109
252.000000 773.000000 278.000000 92 84 81
231.000000 830.000000 302.000000 135 129 130
216.000000 855.000000 259.000000 98 90 89
252.000000 846.000000 297.000000 180 171 169
179.000000 955.000000 276.000000 144 134 130
211.000000 929.000000 269.000000 91 81 75
209.000000 935.000000 271.000000 98 85 77
226.000000 929.000000 269.000000 59 52 51
245.000000 959.000000 313.000000 181 178 183
196.000000 982.000000 276.000000 169 154 146
210.000000 981.000000 281.000000 186 170 163
200.000000 997.000000 262.000000 181 166 158
228.000000 987.000000 281.000000 188 174 168
225.000000 1006.000000 257.000000 201 184 175
241.000000 999.000000 275.000000 218 199 189
282.000000 514.000000 115.000000 116 110 108
292.000000 514.000000 123.000000 140 135 136
296.000000 521.000000 125.000000 111 105 103
277.000000 589.000000 106.000000 48 50 55
274.000000 638.000000 126.000000 61 61 63
304.000000 601.000000 125.000000 93 86 82
300.000000 524.000000 128.000000 119 109 105
299.000000 539.000000 131.000000 98 86 74
316.000000 540.000000 180.000000 89 85 85
305.000000 564.000000 139.000000 130 126 128
275.000000 553.000000 249.000000 137 126 121
310.000000 519.000000 251.000000 142 135 134
307.000000 539.000000 233.000000 144 135 132
296.000000 572.000000 224.000000 141 136 139
293.000000 580.000000 131.000000 91 89 91
316.000000 604.000000 136.000000 88 77 69
309.000000 621.000000 175.000000 83 77 74
312.000000 628.000000 160.000000 74 69 66
303.000000 620.000000 210.000000 115 106 103
308.000000 615.000000 210.000000 103 96 94
311.000000 627.000000 197.000000 76 71 67
314.000000 631.000000 205.000000 96 90 89
310.000000 630.000000 213.000000 98 93 91
298.000000 636.000000 240.000000 114 108 106
315.000000 609.000000 231.000000 57 56 58
324.000000 615.000000 190.000000 40 38 38
359.000000 585.000000 161.000000 80 76 76
364.000000 609.000000 147.000000 122 108 98
323.000000 585.000000 228.000000 109 98 91
328.000000 615.000000 199.000000 107 98 92
329.000000 610.000000 207.000000 111 100 91
257.000000 642.000000 113.000000 99 95 95
305.000000 679.000000 97.000000 104 98 96
300.000000 755.000000 100.000000 115 109 107
310.000000 760.000000 109.000000 104 97 93
320.000000 676.000000 105.000000 106 100 98
320.000000 691.000000 104.000000 98 89 84
287.000000 661.000000 255.000000 123 118 118
317.000000 640.000000 207.000000 126 116 111
297.000000 671.000000 250.000000 127 119 117
313.000000 696.000000 234.000000 102 94 90
304.000000 693.000000 246.000000 88 81 76
328.000000 642.000000 174.000000 111 103 98
323.000000 680.000000 208.000000 130 122 120
329.000000 720.000000 218.000000 103 93 87
325.000000 748.000000 226.000000 53 52 52
297.000000 528.000000 258.000000 148 138 135
304.000000 513.000000 260.000000 123 113 109
272.000000 656.000000 262.000000 100 94 92
256.000000 680.000000 278.000000 89 84 84
285.000000 677.000000 261.000000 91 85 83
279.000000 699.000000 285.000000 71 67 67
312.000000 701.000000 256.000000 64 62 62
306.000000 701.000000 286.000000 79 72 69
268.000000 710.000000 301.000000 85 77 73
308.000000 731.000000 318.000000 97 91 90
291.000000 749.000000 267.000000 67 65 66
303.000000 742.000000 272.000000 73 71 72
290.000000 761.000000 268.000000 89 84 84
306.000000 737.000000 284.000000 98 94 94
293.000000 728.000000 364.000000 126 122 123
293.000000 734.000000 364.000000 149 142 141
296.000000 755.000000 363.000000 148 128 117
322.000000 712.000000 256.000000 77 68 61
322.000000 719.000000 306.000000 96 92 91
354.000000 730.000000 283.000000 119 116 116
359.000000 748.000000 264.000000 76 67 61
363.000000 739.000000 289.000000 105 100 99
321.000000 730.000000 377.000000 124 120 122
329.000000 732.000000 379.000000 95 86 80
351.000000 709.000000 357.000000 126 122 123
337.000000 762.000000 374.000000 130 122 122
362.000000 723.000000 345.000000 128 122 122
363.000000 725.000000 362.000000 125 118 116
365.000000 731.000000 363.000000 110 102 98
358.000000 735.000000 373.000000 168 160 160
373.000000 767.000000 322.000000 109 100 96
363.000000 743.000000 366.000000 104 91 85
354.000000 749.000000 371.000000 183 173 172
283.000000 803.000000 103.000000 109 100 97
294.000000 804.000000 110.000000 105 94 86
303.000000 814.000000 127.000000 101 91 86
297.000000 817.000000 120.000000 88 78 71
305.000000 802.000000 120.000000 107 99 95
268.000000 832.000000 122.000000 99 89 84
260.000000 816.000000 245.000000 61 55 52
267.000000 836.000000 132.000000 93 87 85
267.000000 857.000000 143.000000 138 124 117
269.000000 858.000000 148.000000 85 78 77
283.000000 855.000000 156.000000 144 132 129
259.000000 878.000000 181.000000 103 85 79
287.000000 867.000000 175.000000 133 124 120
293.000000 847.000000 148.000000 165 150 141
299.000000 841.000000 144.000000 163 142 127
299.000000 842.000000 149.000000 136 122 115
296.000000 845.000000 151.000000 139 126 124
297.000000 846.000000 156.000000 155 142 136
289.000000 850.000000 151.000000 151 135 125
288.000000 855.000000 157.000000 170 157 151
305.000000 837.000000 143.000000 154 140 139
293.000000 856.000000 170.000000 146 133 126
311.000000 839.000000 173.000000 157 144 138
290.000000 865.000000 183.000000 164 152 146
287.000000 843.000000 234.000000 59 52 51
276.000000 833.000000 248.000000 60 54 52
281.000000 832.000000 246.000000 83 75 72
286.000000 837.000000 240.000000 134 125 122
271.000000 874.000000 203.000000 87 80 78
287.000000 871.000000 207.000000 130 117 108
