ply
format ascii 1.0
element vertex 1098
property float x
property float y
property float z
property uchar red
property uchar green
property uchar blue
end_header
106.958664 605.672729 120.144951 44 45 48
108.518822 619.220642 81.662354 64 66 71
121.328949 611.764771 77.201241 51 55 60
122.886871 622.640198 87.118065 43 46 51
118.787262 629.194458 75.901718 46 49 53
121.541252 639.108337 80.004692 45 48 53
115.319130 622.722168 83.366875 43 46 51
126.959381 627.295227 95.730148 40 43 48
99.936256 616.436157 94.594727 56 60 65
99.375191 610.070007 103.555984 60 63 69
97.836494 616.646973 102.911079 64 68 75
104.646339 609.551880 123.926453 46 50 56
109.886658 625.052063 111.801483 83 89 98
114.166878 618.036499 110.369392 51 53 58
128.831665 605.450867 108.901123 71 67 67
115.827164 610.203613 113.767937 41 42 46
117.807022 625.289917 99.052719 54 59 67
115.777435 626.727722 99.631363 46 49 55
46.054356 640.984375 149.475540 79 77 79
35.798409 637.410583 158.373978 99 96 96
45.258717 635.498230 184.870010 125 122 124
57.940445 634.723511 168.012558 105 104 106
55.971085 635.633850 175.806686 124 121 123
50.811222 634.724487 196.965622 124 121 122
58.037567 628.105530 182.515991 114 113 115
63.694492 627.052307 178.138184 108 106 108
56.029163 633.786133 189.802444 118 115 117
112.382431 513.796387 139.834412 135 131 133
106.499908 523.557983 143.971344 135 131 132
110.631981 516.364624 144.873947 142 138 141
109.036293 518.398743 151.684860 130 124 125
105.952858 513.715332 147.843903 141 137 140
105.361282 525.052002 143.807587 125 121 122
106.277092 526.960327 153.618942 120 115 114
109.248581 541.876953 132.268768 77 68 61
111.415840 528.207764 154.919952 104 94 89
115.729584 514.056091 129.958572 102 99 101
115.931122 523.686829 127.617073 91 85 83
113.094925 531.580566 140.003098 68 61 57
113.179214 526.649658 136.468811 101 97 97
118.223557 543.373047 136.713058 73 65 63
119.297821 539.548096 143.836227 107 104 105
111.057335 544.078613 152.533875 122 116 116
112.360107 525.267029 162.804611 143 139 142
114.949936 516.429382 175.365494 141 136 137
105.424026 517.643799 172.818466 135 130 132
112.142014 516.850586 183.483154 142 137 139
120.144562 510.542267 192.313080 136 131 132
115.733040 520.606995 188.003906 137 132 133
114.331184 525.533569 178.419159 142 137 139
116.400436 532.994934 156.952362 141 137 139
117.024094 542.063293 175.501434 118 114 114
117.021660 537.323486 177.744064 133 128 130
110.391449 547.967163 137.003464 87 79 75
108.550697 571.378601 134.534592 49 51 54
119.662277 553.014832 130.368027 30 29 30
119.607437 553.632690 137.367004 34 37 41
122.607521 551.318420 136.813492 76 74 75
116.155464 548.859131 147.693222 79 76 76
115.005867 552.808167 140.661667 104 96 93
118.606209 554.236694 145.599182 54 55 59
115.697456 558.351379 157.648453 122 115 113
117.371902 561.296936 135.036957 42 46 51
128.498291 569.397095 132.761765 41 43 46
125.598511 572.266052 134.334274 41 43 46
119.892395 558.889099 153.785278 96 92 93
111.107445 575.075439 162.419754 52 53 56
110.373756 545.838501 172.724075 113 110 111
124.875328 553.855103 185.375000 107 104 105
118.482452 562.187256 163.664734 52 52 54
113.538849 561.575134 174.716095 49 50 53
117.818932 566.006653 164.102798 53 53 56
118.078880 570.966064 169.319168 52 52 54
118.088608 567.441162 171.764786 50 51 54
119.593445 560.142761 180.664124 72 68 69
114.522026 560.059326 185.513077 53 55 58
122.667168 572.240845 183.572891 50 51 55
91.704735 586.468506 141.699997 57 59 64
79.705864 603.771606 139.735992 58 61 67
84.347961 597.361755 145.050293 50 52 55
82.912720 601.951233 138.038422 53 55 59
84.418022 602.242615 123.456650 55 58 64
63.588902 625.401489 173.830765 110 108 110
69.062408 626.556213 172.470901 100 99 101
71.303383 628.742676 182.042267 102 99 101
73.900452 634.934143 175.567123 97 95 97
74.971992 639.483582 184.328705 99 95 95
98.947510 580.273193 135.809586 55 57 60
98.642288 588.921265 143.751816 34 36 40
109.002098 576.713623 144.457916 45 46 48
107.136093 593.486755 139.244614 51 48 46
113.527199 601.751709 124.615669 49 49 51
113.665161 594.864685 149.108597 67 64 65
110.065819 589.713867 149.169281 47 49 53
111.824844 586.042297 156.112259 49 50 53
112.372253 589.911499 155.052383 48 49 52
119.148941 592.593994 158.895264 54 53 54
121.208138 593.212524 130.068649 44 44 47
124.947113 588.108521 131.437775 75 73 74
128.327484 597.860168 141.379608 105 99 97
122.850990 597.446350 147.891693 110 104 103
117.450211 580.423950 162.935501 51 50 53
115.002319 588.590454 169.281860 50 50 53
116.921364 582.694092 169.853409 53 53 55
118.338455 586.909241 169.657227 50 51 54
121.945915 574.309021 183.434067 51 53 57
119.593506 584.899353 192.133591 54 54 57
118.627342 597.196045 172.687683 121 113 109
128.390701 603.342102 165.769852 110 102 99
123.399895 597.336914 183.381317 122 114 111
123.142876 631.584229 151.885086 55 54 54
120.081841 631.245300 170.733093 64 61 60
120.425751 629.920288 179.377914 76 72 71
124.381241 626.954468 186.845154 102 97 96
117.732956 639.166626 204.049881 114 107 105
126.480820 631.027954 208.851715 90 85 83
121.417374 628.204224 216.424530 118 112 111
126.751266 630.976685 207.138016 117 111 111
118.624718 624.987244 234.131638 80 75 73
116.998322 629.203735 241.156708 79 75 75
50.639484 670.997681 121.186241 105 101 100
53.397297 667.453552 130.111572 97 93 91
57.639030 666.286621 128.613831 96 92 91
63.805752 669.247253 119.652863 79 73 70
51.349136 684.608704 122.047951 120 116 116
58.698978 674.574036 116.905396 105 101 100
59.944164 703.573303 115.236099 91 85 84
38.015072 716.472656 116.108780 116 108 105
46.804176 718.281860 121.751953 135 128 127
39.118187 718.763062 123.340469 129 121 120
55.612137 712.789063 113.985794 108 103 103
68.093903 712.406616 116.390823 103 98 98
43.854866 718.623535 119.648933 102 96 94
51.858418 721.651428 117.420532 90 86 86
43.022820 736.765442 122.312943 97 87 81
68.643814 745.613892 124.590446 123 117 117
61.185162 763.788025 125.351921 131 123 123
63.678108 665.777222 121.946228 86 82 80
65.928307 669.194336 120.917778 88 85 85
65.816368 668.195129 119.997993 110 106 105
75.551033 675.792603 130.489746 75 73 74
70.573845 674.953613 120.246986 79 77 77
66.874397 684.684082 119.674507 100 96 95
69.661423 679.189758 125.759613 74 72 72
74.784782 680.937195 119.582443 81 75 73
80.155083 687.080566 113.466095 102 97 96
70.907089 689.465027 120.458328 94 89 88
71.060524 688.030273 115.504944 87 80 76
76.037170 695.802124 114.408051 107 102 101
77.924782 692.329407 112.437515 105 102 102
79.394226 706.179016 113.924255 73 69 66
82.111618 702.712341 107.212540 87 81 78
90.286507 703.077698 128.014481 89 86 86
123.063255 668.872803 124.506485 79 76 76
97.754288 703.045227 120.574501 88 85 85
117.890587 678.670471 118.142593 84 81 82
124.235741 685.094543 124.671753 59 57 58
117.344963 692.974182 123.716774 75 72 72
114.239479 697.264771 116.917389 76 72 70
128.086258 696.865173 118.187195 80 76 75
69.054886 718.282471 111.066383 82 76 74
79.563034 713.828857 109.817474 80 74 71
72.991455 704.788330 118.375259 112 107 107
74.158920 725.990906 108.615570 121 117 118
77.552925 731.971008 98.982033 86 80 78
79.415207 708.366333 110.090370 97 92 90
73.240692 711.282104 108.527519 82 76 73
86.625534 730.110901 102.078522 117 111 110
96.327972 740.166199 96.411896 110 103 101
75.164230 737.392883 105.124954 126 121 122
71.663094 740.611572 107.174423 124 119 120
64.264282 739.151672 114.005424 127 122 122
64.966232 756.982483 115.343964 117 109 108
60.812515 758.607605 125.190521 83 77 76
93.466125 748.365295 97.663055 118 114 114
97.310486 749.539612 102.393021 111 106 106
91.318695 750.667419 96.551308 114 109 109
86.422867 760.272400 103.402008 118 112 111
96.980293 760.701355 106.140358 107 101 101
99.680183 701.460938 124.472427 89 86 86
101.735207 718.155457 116.256882 80 77 77
97.082718 732.193726 107.280617 112 106 104
124.462662 711.994812 103.739517 94 90 88
119.165413 712.980469 113.411491 93 89 89
124.171814 716.977234 106.384514 57 56 59
129.604355 723.346985 106.555374 101 97 98
115.443504 728.948547 128.048798 70 68 68
121.977921 734.512268 124.927551 59 57 58
118.683182 724.099670 111.755699 54 55 59
103.814873 739.656067 96.535957 119 113 113
96.183830 748.258118 102.049034 91 85 82
103.295364 760.574402 101.605812 83 76 71
96.869064 758.502991 98.203949 91 85 83
127.242294 747.965576 104.221489 107 103 103
113.668434 739.966797 111.937691 70 67 67
116.569641 744.127197 98.176346 87 83 83
114.850868 764.149719 105.195717 98 94 93
117.300354 767.759155 97.180626 96 91 91
31.910835 660.812561 153.949020 113 108 108
29.103626 656.572815 145.891510 113 109 110
27.763851 654.152588 157.318604 115 109 108
26.387011 653.603210 143.923141 125 120 120
26.802946 659.613098 155.378784 134 129 129
29.352392 646.029541 162.866501 107 101 99
25.990067 663.218872 166.267731 109 99 94
32.270374 653.950623 166.567032 105 95 90
38.853218 657.717468 175.018524 122 115 113
33.136909 662.027161 183.000153 135 130 130
29.821692 680.552734 139.099518 108 100 97
25.046490 670.971069 152.858765 140 132 131
24.891586 677.444336 158.135361 133 127 127
21.787998 680.900757 157.507233 117 109 107
29.310297 690.349670 155.652817 77 74 74
26.877640 693.547852 157.471786 113 106 102
32.655209 702.921082 140.666428 115 107 104
19.321167 673.422852 160.792633 133 126 125
27.934515 682.799072 166.849625 138 133 134
26.970915 677.205750 173.754547 86 77 70
24.395214 684.969055 171.404434 100 90 83
31.173050 696.890076 162.988678 132 125 124
25.021690 699.355225 160.288055 141 133 132
41.385342 648.692749 143.599548 100 96 97
40.067261 649.285706 139.194229 99 96 96
45.067009 656.859619 125.924568 111 107 107
49.302876 645.506409 146.063324 95 92 92
32.008385 639.963623 164.279678 115 109 108
33.744522 641.363770 171.727661 126 121 122
31.025576 658.804626 178.717255 138 133 134
32.825668 648.995117 182.858200 138 132 133
31.715006 664.232300 189.375931 139 133 134
29.059265 668.205261 190.502792 141 134 135
38.004326 686.920288 129.104721 115 110 109
32.673294 696.319153 129.143036 79 75 74
39.524574 678.350647 181.947601 136 129 128
30.680374 682.646545 188.994766 134 126 126
34.892582 692.633301 189.442154 137 128 125
37.185478 654.498596 201.630096 137 131 132
37.233521 660.518616 195.260941 135 129 130
33.344818 671.843262 194.080460 131 124 124
44.795849 666.309082 201.453201 143 136 137
42.573261 664.749146 207.913406 134 128 128
63.208736 644.953674 192.166290 72 65 59
62.084583 644.560242 192.246307 86 77 72
57.898170 651.027832 210.953827 107 93 82
42.850052 678.758423 209.300507 78 66 58
29.958015 676.891296 187.010483 135 129 128
32.016628 675.572388 198.398468 137 131 131
36.397579 676.459839 203.253128 143 137 137
51.766315 681.528320 212.808578 84 74 69
50.790833 674.097900 214.836639 117 100 87
52.008728 707.325012 198.774857 175 168 169
53.706295 687.392578 208.645142 184 177 180
28.779028 708.600159 150.703674 86 80 77
36.107292 711.885010 128.295502 132 126 127
34.538536 712.320374 134.820450 118 111 110
31.234598 709.832581 160.297211 143 134 132
41.137783 725.577881 130.313782 119 112 111
46.486855 727.354248 150.624130 118 112 112
32.658207 713.717407 180.293869 134 126 124
45.777161 725.223999 178.809982 152 142 140
47.571350 707.466553 188.664200 137 127 124
48.403591 719.861511 177.941925 101 87 79
55.973255 725.775330 184.077469 174 164 164
47.237675 741.664917 133.650009 109 103 101
45.853073 739.396057 141.792175 110 105 104
49.279076 741.774658 143.771362 113 106 105
51.241531 743.587708 136.915268 113 107 106
41.959038 742.395630 145.393326 117 111 109
54.928772 756.142639 140.115768 114 109 108
45.763824 757.598877 146.477493 119 112 111
60.263210 758.126282 143.210495 127 120 119
46.141045 753.921875 160.383636 98 93 92
54.107788 757.714172 156.580307 139 125 117
51.033817 765.602478 150.352859 139 132 132
60.098377 762.184448 152.343063 109 97 90
56.037319 757.252136 161.184479 124 113 108
56.312618 768.063416 161.033890 140 132 131
53.393177 745.471924 157.208160 131 124 122
60.117767 741.435791 179.635941 152 142 140
60.723869 711.389771 194.473480 166 159 160
67.587944 652.979858 136.370712 65 63 64
73.062279 641.417053 153.596085 85 82 82
75.146950 643.307068 157.722183 95 91 92
81.989815 646.238037 156.368408 84 82 84
74.323364 657.638733 150.165970 47 48 52
66.566093 656.736084 129.017181 96 92 92
81.539940 658.179443 137.410217 75 74 77
81.757851 667.042114 150.868912 62 62 64
68.135117 639.743347 180.920654 73 68 66
81.045654 640.506042 175.770950 58 55 54
71.032547 646.924805 181.866730 80 76 73
91.588470 653.583862 173.812210 79 75 74
94.731163 656.106384 182.113892 51 51 52
90.760254 657.092346 166.263336 76 73 74
89.830002 669.163330 146.418976 64 63 64
95.016510 673.451965 140.936768 58 57 58
90.792084 682.952148 135.196793 80 78 79
87.845032 687.862732 137.619370 57 56 57
97.746681 668.818359 154.217453 70 68 70
92.535370 698.854980 188.677658 62 57 54
111.875694 661.820679 155.612778 81 79 80
114.510292 659.409546 138.388260 89 87 88
118.780647 634.083496 131.198181 62 63 66
120.889725 644.604553 140.073608 63 64 66
123.450142 651.338135 150.666275 64 63 63
111.850769 654.316650 148.805847 67 67 69
123.542694 637.641357 150.172852 57 55 56
116.671394 653.704773 126.321060 74 71 71
115.395805 653.610107 144.156601 78 76 76
110.764351 662.620056 136.361908 86 84 85
115.376953 652.085083 151.439667 77 75 75
113.952797 661.600708 144.440567 81 79 80
114.951469 661.098022 149.707275 79 77 79
106.098892 651.620361 177.962723 66 63 62
106.796089 652.244263 185.784546 88 84 83
104.000351 666.337463 157.839233 60 58 59
107.121872 659.433167 158.421173 81 78 78
109.130196 660.294128 169.966721 80 77 76
93.847420 658.814880 179.423813 64 62 63
97.900757 658.028076 186.952301 57 56 58
96.043564 667.000488 178.402130 54 52 52
106.209305 668.960693 179.692932 57 54 54
106.304626 663.614441 189.792953 62 59 59
110.374992 642.725403 178.810150 82 79 79
110.183540 648.291016 168.421997 65 63 63
111.976288 644.689697 179.754333 87 83 83
110.106621 647.853638 182.105881 86 83 82
113.853661 644.884338 182.384430 83 77 76
107.205933 682.763550 139.683914 69 68 70
100.342674 671.117065 154.929718 63 62 64
101.566605 679.103943 157.715408 69 67 68
90.806557 692.917053 123.783546 64 63 63
101.079437 695.570374 134.690018 62 61 63
113.656769 693.217957 132.978180 76 72 71
110.541855 698.333862 128.482895 68 65 65
110.935036 702.317993 133.375900 79 74 72
109.021698 676.671997 133.373520 76 74 74
102.284935 672.078125 163.974274 61 60 62
67.781342 646.223083 196.855743 90 82 78
74.454597 647.028259 206.028091 103 95 89
74.232887 646.122803 190.476135 85 80 78
78.626862 646.114868 218.368393 102 93 87
68.838264 660.510071 218.151291 118 104 94
66.950478 664.929260 225.606171 114 101 91
77.910942 648.767395 204.201569 96 89 86
98.634956 653.646118 200.530243 75 71 70
81.637154 648.247864 216.507004 102 94 90
90.819801 659.511353 219.557281 88 81 77
73.633270 668.733765 237.180008 130 112 96
81.188805 656.677246 227.215622 117 105 96
81.817818 661.889526 231.312119 115 101 90
79.573586 666.178894 234.285324 108 95 85
84.580574 661.598083 232.895416 102 92 86
91.820465 657.353394 226.719498 87 80 77
69.629150 695.321045 220.589905 163 131 114
94.676849 698.077881 205.668304 109 105 106
88.613708 701.856689 217.046997 147 111 96
96.359497 701.988708 218.288742 151 119 104
92.519012 703.846191 216.385696 159 128 114
57.610191 682.051697 226.137268 142 116 99
66.347481 690.635010 223.518463 162 130 113
94.329857 659.017334 200.687790 57 55 56
97.445770 651.733887 198.495560 49 48 49
105.975327 661.480591 197.387543 67 64 63
103.657654 656.672424 200.375015 66 63 62
111.058800 664.790466 196.851501 61 59 59
101.562912 658.399109 215.855316 66 62 60
113.445953 641.469971 192.145294 89 83 81
117.191322 636.156006 201.178558 81 74 70
113.743942 650.237427 198.232788 82 77 75
111.416016 648.909729 202.661682 92 88 88
119.844032 659.532959 206.213852 93 87 86
110.732338 655.235107 209.818756 105 101 101
103.818161 664.407898 240.180023 111 101 96
99.132416 669.043335 245.928986 119 108 100
104.955284 662.247314 249.066986 89 83 80
108.354210 663.144775 248.759903 81 75 73
119.790047 643.381775 244.244278 107 99 95
118.909943 644.843018 245.348526 98 90 85
110.125778 657.182312 222.728287 66 64 64
122.695358 657.902771 242.390274 87 80 76
118.012344 660.260132 230.892990 69 65 64
118.312401 666.652283 249.744522 69 65 64
116.448227 662.604797 246.287354 57 55 54
115.670509 670.186646 242.635040 77 71 69
120.832840 660.240051 239.542984 98 91 89
124.267616 659.644165 253.544327 90 82 78
97.755577 699.645630 221.448761 104 82 67
107.661812 701.879395 246.423523 165 139 123
66.741051 714.351013 189.678513 113 104 100
84.724655 727.276794 191.646866 109 98 92
82.554916 731.243347 188.615921 88 77 70
90.821266 734.450317 187.994034 71 61 57
76.443825 737.649109 186.084290 158 149 148
92.835533 734.207397 187.904007 90 78 71
73.417664 752.731262 185.711685 143 135 133
88.025139 756.329956 181.639313 133 124 122
107.375237 708.389832 131.235748 67 66 68
109.539299 705.470337 132.390427 113 111 111
112.638397 702.829285 141.907532 87 82 80
115.817665 713.733459 130.846069 64 63 65
116.567924 700.098755 130.870422 72 68 66
99.854927 715.813293 183.770081 83 74 69
102.813919 719.330261 190.474121 70 60 51
100.495590 716.104126 184.312576 72 63 59
116.279625 736.755310 188.838257 105 97 94
100.399193 746.093689 182.182297 123 115 111
111.482224 753.259216 183.798569 108 99 95
100.052650 755.028076 184.751923 126 118 115
115.448296 753.322205 179.647812 104 97 95
115.372208 756.554260 186.066452 97 90 88
116.016373 758.469910 189.092819 129 119 114
72.364418 710.184875 194.008011 186 177 179
67.095589 710.636475 203.706177 196 188 190
69.010880 707.230957 212.546616 194 186 188
67.477768 707.381409 206.303116 192 184 186
68.426086 709.763672 203.775528 186 177 179
81.927925 708.298340 188.090088 105 92 88
79.700684 710.717468 194.855759 155 145 144
87.012146 706.656372 200.358551 172 164 166
90.661507 703.211548 230.100708 154 121 107
98.698395 700.572754 242.895309 155 122 107
105.162819 701.591064 198.663727 104 93 87
107.469116 706.010803 207.474854 123 111 104
105.190437 712.766724 202.633713 146 136 134
105.648552 702.499023 218.256226 92 78 68
112.159050 716.386169 210.986664 111 99 92
105.304024 718.062256 192.254349 112 99 94
112.044952 725.115906 208.929718 140 128 123
114.005096 710.355774 221.242447 103 92 84
112.985657 709.750854 222.329117 96 82 76
109.490028 719.483398 216.396896 114 104 99
116.872116 733.865417 198.386124 100 90 84
114.259811 730.064453 213.003220 55 49 48
118.668335 735.316895 211.738647 60 57 58
112.535301 706.930420 228.303772 97 91 90
102.645836 700.620361 235.170212 146 120 103
113.451431 700.037842 229.940994 108 91 82
124.964653 708.993042 237.805832 82 71 61
114.131401 706.588928 245.296005 103 95 90
119.584358 713.376465 242.618851 96 86 79
120.820778 729.066345 224.719345 140 130 126
128.181396 733.199463 219.079163 127 120 118
123.532013 722.248962 244.366562 91 89 91
127.735558 743.808960 203.673691 70 64 62
117.372726 745.957214 201.205902 125 116 112
121.301720 744.525574 218.296387 118 107 102
120.509087 758.624817 202.965240 107 101 101
120.545135 766.056580 202.749054 139 129 125
129.758606 756.975037 207.744629 55 57 63
119.927254 765.720581 211.346085 70 66 65
118.213860 754.643372 208.839249 99 92 88
139.450638 534.497742 58.974545 112 105 102
140.490555 538.112915 61.554230 114 106 103
150.761459 513.709656 61.786755 97 91 87
155.706055 517.795593 53.675255 94 89 86
147.572144 534.889587 44.041252 101 96 94
149.884109 535.029846 51.165813 124 114 108
152.136139 540.112671 56.093967 121 111 105
142.931625 559.382751 66.313255 103 95 91
137.399323 574.772644 63.227268 112 103 97
153.898315 555.188904 58.445168 104 97 93
159.138229 551.875549 61.574169 111 103 98
153.325272 563.680359 60.657112 100 92 88
145.722168 571.704346 60.953983 114 105 100
155.368256 562.853699 62.993923 97 90 87
160.328094 557.420654 62.169048 99 92 88
165.805496 518.659302 58.437454 94 88 86
162.612976 517.919067 55.348228 93 87 84
173.276550 521.438660 55.698261 90 84 81
174.492874 519.668518 53.074017 94 88 86
164.009888 527.933594 42.211807 117 108 102
159.342575 544.253906 47.601280 126 115 109
171.432388 539.779297 35.189606 93 87 84
178.642288 516.681030 45.920479 79 76 76
180.356934 522.518616 40.416664 73 70 69
182.876617 532.430969 43.950005 60 59 61
190.902466 522.493225 42.952324 98 91 89
191.412933 536.218567 38.160660 100 93 89
168.282303 569.650391 60.024761 101 93 88
177.393814 567.444092 53.639111 102 94 90
166.859528 570.669983 50.602940 97 90 86
174.962326 574.601868 56.333076 102 94 90
182.712341 558.523987 40.188484 123 114 109
181.438080 563.426453 44.480526 108 100 96
189.943573 564.318604 48.335751 109 101 97
138.125946 523.788269 65.799110 108 101 98
126.096077 537.340759 75.084167 110 101 96
129.028793 535.632996 78.784210 83 76 70
131.301224 541.291077 75.808205 105 97 92
139.827820 542.485657 92.313690 98 90 85
143.788330 524.043152 92.561180 75 69 65
154.386108 517.570862 98.207428 69 64 60
130.200012 518.469055 114.514397 69 68 70
125.586021 551.286987 68.426567 105 99 96
133.469620 545.314453 66.832199 118 111 108
141.776520 553.448364 61.513641 108 100 95
137.776733 555.297180 81.444138 81 75 71
134.544739 550.470581 91.672653 93 85 80
126.181480 551.902649 79.397507 102 93 87
126.921783 572.812561 73.807434 111 104 102
135.579468 571.900513 68.013542 124 114 108
156.872147 588.774475 53.229408 115 105 100
162.433533 584.614502 50.731564 115 106 101
160.383896 584.903931 55.942245 114 105 100
155.968796 587.993774 58.040668 115 106 101
176.634705 583.654480 49.686577 99 91 86
169.765686 597.031616 43.474571 118 108 103
182.162338 576.586548 55.710346 101 93 89
191.355911 608.249878 46.529385 115 106 100
182.414124 602.318237 45.555576 118 108 101
171.962280 613.486938 59.931583 131 119 110
175.428757 611.469849 54.157700 128 116 108
179.537979 613.082764 47.176247 121 110 104
186.562332 613.136230 46.708351 119 109 104
173.695618 610.707397 67.601952 110 99 91
182.758636 613.436035 59.287201 90 81 75
186.334335 619.716919 52.499237 112 102 95
193.942291 629.975342 69.082001 89 81 77
132.825470 585.221985 74.885048 112 103 98
135.910309 586.052917 69.438713 119 110 104
135.200607 587.696716 62.167309 117 108 102
133.259445 607.528198 82.328438 90 83 78
145.752640 607.372131 71.656776 125 112 103
152.639801 597.662964 88.020035 119 107 98
146.829300 604.531189 109.400810 66 61 57
140.190628 606.695679 114.325668 84 79 79
129.055984 612.481567 98.013931 43 44 47
150.220566 603.687012 80.937241 115 103 95
154.380814 614.131958 87.465813 114 103 95
162.177292 609.665100 80.782677 110 99 92
152.472595 639.242004 91.363594 81 77 76
138.280365 611.837097 95.542908 49 50 54
147.080154 609.233032 96.010193 51 53 57
149.668015 610.954102 100.190773 88 83 84
153.817642 632.101990 94.588577 82 78 78
150.840393 637.248047 102.395935 49 49 52
157.833450 637.367920 98.506157 52 53 57
154.465530 627.876282 105.414551 62 61 62
150.411194 624.780762 119.993813 60 59 60
163.910629 607.655579 63.228195 124 112 103
166.340042 605.072937 69.112679 123 111 102
168.682755 609.091064 70.773621 115 104 96
176.233551 608.096741 73.940529 103 94 88
168.411728 612.685059 95.533783 89 81 77
172.268555 611.166443 90.399155 100 91 85
172.050385 614.045044 92.150330 77 71 68
179.114426 614.063049 77.061813 87 80 75
181.900192 621.316650 75.402130 65 59 55
182.807236 618.616516 62.962296 85 77 72
185.174484 627.258240 78.442886 43 47 52
178.212143 630.428467 71.920616 49 48 50
188.088760 636.220825 94.209595 55 55 56
187.200531 626.740662 85.995773 36 37 40
196.537445 635.098755 82.758545 51 50 51
163.442429 619.734924 96.754669 58 57 57
163.760559 631.012024 101.687469 53 53 56
178.345779 630.960083 97.046043 54 53 54
199.319901 513.632263 42.258022 105 97 92
204.125931 529.276794 46.572754 62 61 62
187.829102 529.819458 42.363331 76 73 74
198.828125 527.812805 46.756302 78 75 75
199.970398 524.300842 49.540657 79 74 73
198.694519 515.898499 46.389862 75 70 68
212.653687 527.205627 41.222813 88 82 78
216.477219 525.246643 46.193848 99 90 84
214.263412 535.470459 40.967991 91 83 78
209.257706 527.145935 43.833286 66 61 59
212.539612 541.358093 42.895908 95 88 84
217.565872 542.057312 39.879883 72 67 64
217.669113 529.096863 57.156048 102 92 84
219.594711 534.417297 58.338078 100 90 82
222.480209 539.422180 61.143509 89 80 72
190.866028 560.425659 42.112263 121 112 108
204.225906 558.174194 26.617596 102 94 90
202.793716 578.004639 38.976433 114 105 100
209.246994 542.681213 48.495953 99 91 86
212.537170 550.283752 42.163021 71 63 56
209.220062 556.451538 45.159714 54 51 49
218.407272 546.771545 50.233185 117 107 99
216.553528 551.844666 54.945969 104 94 86
218.953308 555.373779 58.557281 112 101 92
207.505661 565.606567 34.404400 114 106 102
214.907257 576.793884 42.437229 78 71 65
206.685089 567.614319 50.055557 94 84 77
216.026337 574.130859 55.976700 83 76 71
217.537659 564.804810 51.929001 87 79 73
215.432175 509.952484 80.314133 104 99 98
220.597565 535.337952 71.346413 108 98 90
220.220886 557.894043 63.266014 106 96 89
222.546005 556.241211 67.078323 83 75 70
225.146332 555.884827 70.412613 81 74 69
220.598907 511.420471 85.525894 97 90 86
223.716202 533.193542 87.667145 75 65 57
232.735718 537.131958 86.222160 93 81 70
250.635422 534.140503 99.204559 90 79 69
221.958649 555.071655 82.647667 35 38 41
240.391098 550.288757 96.374298 98 91 87
245.065567 544.691040 93.751465 90 78 68
249.669495 542.350830 99.633385 85 74 65
235.997574 568.547729 96.911942 114 109 109
252.997314 567.132446 98.507378 102 97 97
256.419159 570.056396 94.724022 112 107 108
197.909073 574.414490 43.800400 103 96 92
202.477905 582.868408 44.399311 106 99 94
189.568344 580.129822 50.512627 103 96 92
211.255432 604.897095 50.209732 107 97 92
205.781525 586.445190 41.897964 102 93 86
212.694641 588.859314 58.114067 82 75 71
219.802216 590.268677 61.265465 66 59 54
212.685410 590.358337 50.020592 87 79 75
205.830978 587.354309 62.593128 81 73 67
209.885757 601.528625 47.408607 92 83 76
209.655060 601.057373 48.780586 103 93 86
209.084091 610.679443 53.311703 80 73 68
198.718323 607.117310 42.613476 114 106 100
195.440643 615.478516 49.954941 111 103 98
192.663574 633.329712 61.010586 49 48 50
210.346115 610.868103 52.994724 80 73 69
211.190445 606.427185 58.880138 66 59 54
215.877014 584.122253 70.824982 70 69 70
221.938828 578.741699 71.642242 52 53 56
222.037125 577.364746 85.168732 50 53 58
224.953705 574.886719 77.408012 53 57 63
224.222794 587.315735 90.409714 88 85 85
207.191681 594.880920 69.236435 78 71 65
220.631271 607.369629 89.340782 71 65 60
208.077118 613.487793 66.806786 106 96 89
200.087265 632.936646 69.370461 36 38 42
212.407196 637.731934 107.452484 70 68 69
234.994751 580.421875 97.904495 103 99 99
235.055054 604.258789 87.655159 74 68 64
247.849640 593.247925 95.541313 85 78 74
246.607712 593.221191 104.189392 91 83 79
261.431335 581.726013 99.694412 85 82 84
262.233673 605.517029 101.806351 78 70 64
235.071060 616.735046 94.051941 73 66 61
227.804413 612.285034 94.839340 70 64 61
225.655258 626.070984 101.651413 93 87 85
237.027008 636.093872 111.218063 93 87 85
252.404892 617.486328 109.816284 56 53 53
243.612366 622.977051 113.509705 93 88 86
254.149261 630.215515 114.507919 102 97 95
132.359009 511.583710 211.828644 125 116 114
127.595932 532.703796 200.839401 144 138 138
137.363998 536.256714 206.964569 130 122 121
143.154541 536.428467 217.959656 149 143 145
147.480438 513.514771 211.565842 143 137 138
146.625397 530.820984 214.763229 85 78 75
127.722679 549.379517 197.384964 132 124 121
130.008438 569.596375 202.836212 53 54 57
121.405884 579.075073 195.720764 53 54 56
137.722107 568.213806 212.864334 59 58 61
139.296524 553.402161 210.593018 110 104 104
147.380875 558.372192 215.095535 121 114 113
156.408340 552.155823 222.240219 123 117 117
153.062973 568.648376 225.048828 56 57 60
151.907501 570.722900 228.079391 59 61 65
171.183411 539.461548 225.548050 153 145 146
185.284241 524.663147 244.550476 147 141 143
183.592514 514.380249 242.860672 127 122 123
187.791534 535.770691 240.427475 145 140 142
187.727295 537.138123 241.104553 149 143 145
162.182846 553.541870 224.059937 121 115 115
157.909134 561.716370 220.643173 57 56 57
157.772690 569.725342 227.227859 58 60 64
178.031754 542.804932 232.729523 129 124 125
173.487137 558.211182 231.231857 105 103 105
184.715424 553.001038 236.048721 127 121 121
182.010071 543.375366 238.767792 131 125 126
189.246002 568.037170 245.332901 51 53 57
190.323532 567.991150 244.309998 47 50 54
138.177963 611.565918 145.451736 72 67 65
134.868866 602.269043 149.097977 75 69 67
125.963264 601.297791 152.538498 101 95 95
127.004990 612.349487 159.830978 108 101 98
129.778748 606.541687 188.507904 108 103 102
130.913589 604.487488 181.666611 119 110 107
131.480042 607.375793 144.855392 89 83 81
127.308533 605.931152 145.006165 99 93 91
126.085480 632.149719 137.720154 64 62 64
131.944000 629.433533 146.365189 88 86 87
132.271149 609.810974 170.702850 109 103 102
133.383820 618.619141 167.302261 100 95 95
134.762711 617.207825 171.648193 109 104 103
138.269318 611.500488 176.098175 113 107 107
133.751511 614.707153 173.687286 115 109 109
133.747116 623.715393 181.090668 100 95 94
134.196823 619.292847 182.823914 101 96 95
142.391846 602.137634 193.352127 117 109 106
137.617203 592.641479 196.996811 115 105 100
139.012177 599.460571 199.694214 119 110 106
149.403366 579.342529 216.467667 58 59 63
154.872177 595.475159 226.508911 77 75 75
141.190521 598.824951 196.581604 109 100 96
154.977661 599.895813 220.443207 91 84 81
156.197586 604.323669 219.973511 96 89 87
151.201370 584.363831 225.346008 54 55 59
156.795959 593.432556 227.123215 120 114 113
144.152237 607.604980 200.824203 114 106 104
140.451401 622.227783 195.872818 103 97 96
126.465500 623.958557 198.721985 57 56 57
128.738464 623.913818 194.194672 57 55 56
141.276550 624.835022 203.881073 67 64 64
133.278122 623.302734 211.469147 61 59 60
144.908524 620.485352 202.215469 65 64 64
148.737198 625.791504 213.994202 77 72 70
147.366562 617.153687 217.344513 67 66 66
151.802536 614.140686 223.428192 62 61 61
149.992920 614.941406 213.699829 95 89 86
135.801880 616.576477 241.979736 70 67 66
139.816025 617.450378 233.350357 66 65 65
132.970490 615.702271 242.803009 88 83 82
134.586456 616.678528 244.930237 76 70 67
158.199799 610.805664 241.313919 48 48 49
160.581482 594.246155 232.002258 73 69 69
161.613770 597.216064 229.782806 116 111 110
166.498779 597.825378 236.780014 100 93 90
182.529770 585.917480 250.148788 52 54 58
187.459167 574.221619 246.091370 57 60 64
174.152527 593.131470 240.150650 110 104 104
176.943161 602.267273 245.630524 120 114 114
162.042969 606.526306 236.291321 98 93 92
164.977432 620.809937 259.299683 49 49 50
167.451584 614.139038 257.505188 57 56 56
169.620560 622.268250 241.485382 68 65 65
176.606033 613.931885 239.807419 53 53 55
173.195618 613.271484 241.043549 103 97 94
193.950348 608.910645 249.979294 102 99 100
206.183289 515.383179 246.810654 149 143 146
191.351913 520.920959 245.210938 145 139 142
202.859802 541.150146 246.435501 123 118 119
210.227676 529.447571 245.051315 127 122 123
208.277481 534.334839 242.596161 131 125 127
216.548782 515.619385 253.780563 132 127 127
209.367538 535.920166 251.843857 134 129 131
209.380310 534.847717 243.957962 148 144 147
220.365479 528.648743 251.018616 140 137 140
193.538513 543.300232 236.951263 139 134 136
194.200394 543.656921 238.221283 125 120 121
197.996262 546.602844 238.576187 140 136 139
219.781372 544.192810 244.964188 131 127 130
216.193100 551.282654 247.094513 117 113 114
220.591293 552.283264 242.959518 122 117 118
225.558472 556.212585 252.240906 104 102 104
223.293579 554.078857 242.896118 110 107 108
223.479782 531.109253 253.827942 145 140 142
227.994034 538.633423 254.665314 145 140 143
238.503265 540.368225 253.094116 115 108 107
226.302460 547.573181 246.212326 135 132 135
233.073578 553.538574 248.460938 118 115 118
224.511887 559.008362 247.811386 104 99 99
237.328186 558.669006 248.385010 125 119 119
238.857956 577.048401 249.388138 50 53 57
242.097809 555.979919 251.596161 129 123 124
238.503571 568.035645 244.267105 147 141 142
246.418869 566.672058 249.786835 141 136 138
195.379135 580.202759 243.199249 48 50 54
188.930206 603.059204 248.411926 109 104 103
222.725281 595.109436 251.759125 74 71 71
204.138245 615.123657 251.316177 87 84 84
229.006363 579.514893 257.645264 45 48 53
237.749161 582.699463 253.581528 44 46 50
230.785004 601.330627 245.014023 122 115 114
240.934128 582.557739 255.113876 48 50 54
241.769470 597.927612 250.589386 44 46 49
239.119461 603.774963 247.125748 124 117 116
237.247665 614.276245 247.246063 117 113 113
244.049820 612.684937 250.338959 125 120 121
249.129898 614.603943 246.230408 113 108 107
259.802521 620.127441 244.331146 99 96 97
186.195724 673.603394 59.497910 79 76 76
189.664078 674.616455 56.034557 82 78 77
191.072418 701.083435 53.149796 103 98 98
185.967712 700.669739 57.749496 73 68 66
146.705582 664.629272 89.561287 87 82 80
162.507217 658.819702 81.546844 78 72 69
156.842422 665.396729 87.495819 81 75 72
129.504440 649.451843 106.585579 69 67 69
140.131409 643.356445 97.968407 75 74 77
135.207413 645.971130 101.805786 79 75 74
136.407455 670.460266 105.190498 94 90 90
142.126694 653.549683 92.198135 108 103 102
141.205841 666.460999 99.625824 82 76 73
136.625305 664.393921 103.287170 97 91 90
135.971146 703.569275 88.560539 97 91 88
143.408447 668.273193 86.310318 94 89 88
157.056747 690.512207 80.439102 89 83 79
150.021103 692.006226 88.748520 68 65 64
148.889267 694.356873 84.675941 68 64 62
159.787720 694.550720 86.519257 120 114 114
140.440277 680.506287 103.957367 86 79 74
163.909256 648.782532 85.716225 98 91 89
160.937012 643.555725 88.337914 64 62 63
167.547104 634.978455 91.062462 80 76 76
173.349808 643.197205 82.422806 75 72 72
173.469925 644.900940 99.296875 77 74 74
171.353485 641.370056 85.718102 68 65 66
165.557098 658.556396 76.122147 110 103 100
172.903610 667.748230 69.454117 107 102 101
178.341904 637.593872 74.702866 83 81 82
178.063019 636.687500 87.258064 59 57 59
179.744705 665.469360 66.981804 86 81 80
184.800415 661.262817 67.235519 86 81 79
179.402786 648.511108 98.051895 64 63 64
176.819122 646.693909 99.372810 64 63 64
162.705948 687.496155 80.702919 110 105 104
158.825317 697.578491 77.374443 93 88 87
173.308243 703.950745 73.351761 106 102 102
189.127243 710.002991 61.448574 83 78 77
187.464874 725.013916 55.951275 67 64 64
186.840668 729.695862 55.018761 78 73 71
187.168427 739.357910 62.961750 88 83 82
186.144592 746.164124 64.214920 58 55 55
184.847046 754.559875 54.729301 88 83 81
138.040405 715.883362 89.820694 98 93 92
142.658813 712.431946 88.947708 99 93 91
141.672211 728.021912 84.640411 80 75 73
159.167603 724.875916 79.978249 107 103 103
155.786026 722.490173 82.605347 110 104 103
144.149384 730.555176 87.283539 57 55 56
138.445709 732.958313 87.409157 82 80 81
126.704353 761.737000 90.967278 111 106 105
143.182953 756.908691 93.833847 116 110 108
149.819473 738.759949 84.886238 105 100 99
153.168182 738.835632 82.411949 71 69 70
127.507935 751.403320 98.932541 110 105 105
160.105194 709.390564 83.467537 90 84 82
158.343399 717.858704 80.885918 92 87 85
169.712006 707.022522 72.867416 89 82 77
171.028458 715.925171 74.550720 116 110 108
173.909958 704.084656 73.870560 95 91 91
181.283142 721.011902 68.917549 90 85 84
168.014877 739.126648 81.510971 86 83 83
165.462051 742.157043 76.848534 67 65 66
168.142960 762.350708 75.226532 96 92 91
183.236710 747.074097 64.849350 73 67 64
179.282150 761.288574 70.004456 73 66 63
198.698303 646.687439 52.347095 59 56 55
202.577072 652.843994 49.375771 81 76 73
199.064056 649.620911 55.420040 42 40 39
199.080139 655.841492 48.886757 88 83 81
197.199448 660.379700 47.885265 81 76 74
197.676254 675.939270 60.861935 61 57 55
211.842026 641.341370 57.627483 108 102 101
211.601303 647.176880 58.688553 106 99 96
211.293518 668.141418 37.403572 126 120 119
211.995712 668.281189 44.513340 119 114 113
218.250565 669.660034 46.149380 102 95 93
206.456863 671.967651 43.344242 119 114 114
210.180847 660.460938 50.116592 82 74 69
212.057175 670.090881 53.252407 99 92 89
218.298889 672.440247 57.375053 105 99 95
196.839981 669.018494 59.345650 89 85 84
195.883087 684.666565 54.586113 84 78 75
190.049805 690.434448 56.832436 68 62 60
195.203796 692.610657 45.792496 116 110 108
202.531448 686.472534 41.702488 134 127 126
197.620056 697.603516 51.742256 59 56 54
211.405426 675.167786 42.455345 119 113 112
210.451157 689.258423 45.320164 92 83 77
210.517868 692.737000 51.487663 121 115 113
213.243332 694.257690 44.252106 85 78 74
215.599213 692.961609 51.961906 66 60 55
216.143539 700.267944 51.899006 92 86 84
215.059647 701.102051 53.854340 53 47 42
192.091095 637.135864 76.202705 57 55 56
197.277756 638.225952 81.841393 89 86 86
196.724991 647.914734 70.136513 95 90 90
198.202637 648.763428 73.149094 122 116 116
203.976334 645.406372 73.342133 114 109 108
206.161118 645.485657 70.635216 98 93 92
219.922867 642.223755 86.049637 88 84 84
220.419754 640.699524 94.890511 84 80 80
215.028839 641.831543 107.623367 85 82 81
217.762802 640.389954 108.828949 60 59 60
231.960938 652.975952 84.442741 77 73 72
227.002777 638.241089 87.572586 91 87 86
227.506317 664.831970 72.110611 81 77 77
230.360123 649.815369 94.004486 80 77 77
221.886810 645.434265 105.711082 80 77 77
244.468216 643.901672 98.654633 67 65 67
245.067902 653.335693 102.383888 74 71 72
222.911743 678.563354 71.867615 88 83 81
227.549820 697.765625 68.011360 95 89 87
228.612015 699.309814 71.105812 95 91 90
243.138046 688.391846 74.561905 95 87 83
247.688980 681.876404 74.563248 72 66 63
244.661453 698.577026 73.009933 103 97 94
243.002258 693.206787 69.381073 105 100 98
254.459381 689.122986 76.774727 105 99 97
194.112152 721.560730 52.086159 93 88 86
201.157410 703.375854 54.325977 120 115 116
201.098602 713.218933 45.974197 77 75 75
199.616867 715.582642 52.562008 74 70 69
208.224609 732.538025 44.511047 107 101 98
208.401001 721.940430 47.519623 120 113 111
204.042053 714.337463 55.134636 92 84 79
214.535080 713.126221 46.292358 88 83 81
215.326920 701.237427 55.552856 99 94 93
218.837875 704.160950 58.946655 58 54 53
216.258514 725.132935 49.420166 84 79 76
183.954376 742.592041 50.351604 85 81 79
198.237579 745.335083 42.439945 113 107 107
204.598694 742.753296 43.525143 99 91 87
190.566238 749.383057 46.840576 116 111 111
190.740112 754.297241 44.723770 122 117 118
203.543243 758.736389 49.282188 113 107 105
196.222946 771.108215 47.091373 156 148 146
216.878876 748.366638 55.777081 60 57 57
217.066452 752.518860 52.789909 64 56 52
227.204086 713.049072 60.624538 83 76 72
230.768692 717.079590 67.829147 84 77 74
218.752686 732.139893 60.851448 52 48 46
227.759491 738.687744 64.787392 113 109 109
210.918976 768.928955 66.948944 51 50 51
233.367065 697.978333 74.521317 94 89 87
232.306870 717.417175 67.277634 112 105 102
230.801819 721.984436 64.656982 88 79 75
248.041351 727.050537 68.661011 105 97 94
234.751205 728.325806 71.524284 122 115 113
240.156937 711.376221 75.888237 95 89 87
247.922653 723.673706 70.450577 93 83 77
250.732224 734.098816 79.189453 106 100 99
228.742233 746.085022 69.318909 125 118 117
222.138245 747.979858 70.811295 99 88 81
231.519073 763.579102 77.800583 93 87 86
248.572906 742.427856 79.427010 57 52 50
247.386276 749.633911 82.805672 98 88 82
235.998596 761.107666 82.151039 78 74 73
247.513824 765.464355 84.122566 105 100 100
250.422821 765.219543 82.903198 95 88 85
130.180588 646.152649 254.463593 117 110 108
128.863190 727.975098 237.873550 76 73 74
133.032669 719.670837 235.119888 111 103 100
135.014282 727.093018 226.948914 101 94 91
140.158432 727.639343 245.165039 108 100 96
144.434143 725.173950 248.108124 86 79 76
152.289383 734.381897 233.537140 105 96 91
140.803177 729.954590 257.854919 109 103 103
156.333832 726.529541 249.057022 109 100 95
153.777664 731.523438 238.791641 112 103 99
155.287094 735.344543 244.342667 111 102 98
135.245224 741.278015 227.718613 103 91 83
125.625328 767.382813 232.968704 66 62 61
139.363693 750.341370 227.773376 121 114 113
140.002441 760.656189 235.871506 51 49 49
159.575912 741.699890 235.399597 88 76 68
143.051361 754.646790 239.786758 76 73 73
161.288940 733.332458 250.810852 85 80 79
164.898926 741.350952 250.797241 84 79 77
172.413849 760.485535 252.374954 87 83 84
185.002609 755.840271 252.421326 90 85 84
192.159653 763.395935 247.976303 85 79 77
194.588409 744.223572 254.806580 71 64 58
112.581390 669.637512 253.248978 79 75 73
121.968704 664.367188 258.290649 75 71 69
123.996468 665.556274 271.954468 34 36 39
111.226250 666.380554 280.205719 81 75 71
134.436218 661.340759 276.444031 52 53 57
122.286530 657.329834 294.515869 88 81 78
118.905807 652.624451 294.100891 79 74 72
120.557480 660.786438 293.651367 77 69 63
119.889687 668.215454 293.773438 79 71 67
92.592644 677.366638 261.377533 127 109 94
100.977242 686.203918 269.746490 122 110 103
107.244293 669.482117 265.987183 106 98 93
105.944839 675.374817 270.153992 113 110 113
104.849747 684.820801 265.249512 138 113 99
102.674141 696.976379 275.361359 149 122 109
103.977463 698.197021 267.512360 149 122 110
112.231941 684.929626 274.302643 112 106 106
111.776779 694.705933 278.674744 121 117 120
109.707138 699.369263 278.240448 144 140 143
118.928909 696.129639 286.803070 142 137 141
112.743141 681.041199 289.731781 115 106 103
116.327606 674.233643 288.909698 73 70 74
120.065735 674.613098 298.474976 75 72 74
125.344284 674.618713 298.836304 84 76 77
124.426048 704.914734 266.378967 169 138 129
121.753914 712.271606 276.970123 146 135 133
126.905365 711.858215 270.730652 171 140 130
149.302765 570.208069 314.789307 96 99 105
142.674805 570.883850 315.678101 92 96 104
148.576019 570.756042 318.001099 102 104 111
147.435257 572.445068 315.671661 92 94 100
134.996750 583.788086 299.151581 68 70 74
136.411041 590.498291 297.483337 61 63 68
144.700546 576.730774 311.538879 104 107 114
142.746109 590.602966 310.967407 93 95 102
137.427750 593.937805 308.698303 97 99 105
142.595444 597.801331 301.137817 83 83 87
148.979095 576.637390 301.153076 80 82 86
149.674088 585.418640 298.280487 78 79 84
159.688126 591.465393 301.887299 124 122 124
141.996017 597.501160 302.707977 92 92 96
152.222427 597.210999 316.394440 102 103 109
148.827744 629.393311 260.273254 75 68 64
151.887527 632.186157 265.893188 74 68 65
155.473129 626.513367 269.869476 98 92 89
152.594727 640.541382 285.114655 51 50 51
156.054031 642.336853 291.251770 63 62 62
150.905106 609.275635 300.627777 97 96 100
153.302612 586.049377 308.147949 111 110 114
163.229187 582.556458 318.217590 61 64 68
160.415451 589.295776 308.425110 110 107 110
169.995209 579.345703 311.649933 83 82 85
166.487244 598.869141 312.487091 109 107 110
175.912857 589.946167 315.048767 81 79 80
178.323624 608.178284 315.015259 95 89 90
181.281845 608.165283 314.859802 99 95 96
170.288010 609.718384 273.648193 78 75 75
160.875885 626.362549 271.272614 104 97 95
170.018890 624.466248 280.932129 106 101 100
163.234619 630.400269 276.360352 93 88 87
164.156479 636.505615 290.255005 50 50 52
169.777847 628.020630 279.634796 99 94 93
172.740845 629.321777 277.322083 87 82 81
164.902878 632.961304 277.470367 79 76 76
181.558914 608.212402 258.832062 64 62 63
192.451813 609.625366 261.637573 76 74 74
187.413681 613.239380 271.122253 74 71 71
183.505768 607.635071 277.752533 110 106 106
191.678375 618.229858 280.889435 87 83 83
176.109665 624.534973 280.563934 85 80 78
188.814667 632.194458 284.019226 75 70 69
162.539825 613.067566 305.177002 74 73 76
169.715973 606.740540 307.392609 109 107 110
174.659714 624.954834 309.270386 61 60 63
163.417892 641.935791 295.565765 57 56 58
175.514435 637.304993 296.763702 66 64 64
173.899826 633.496948 302.624664 65 65 68
187.737747 612.193726 317.900482 91 88 89
185.604645 639.019836 300.716522 54 54 57
185.590530 631.364746 289.536377 79 75 75
169.144180 625.135681 309.580780 56 56 59
182.016632 637.593994 302.799103 54 54 57
194.987061 631.573975 311.824554 33 36 41
155.623795 600.918579 321.276123 105 107 113
162.877930 582.551819 325.150482 77 81 88
175.928574 588.834717 323.548096 82 81 84
172.022491 588.749146 331.184906 48 50 53
172.630096 591.421570 332.654175 97 98 104
159.799713 602.389587 313.367340 111 112 119
170.469345 604.734863 328.959290 98 99 104
169.340073 597.377502 331.075745 94 95 100
173.545151 600.639282 327.821991 93 94 100
178.381409 593.130981 322.014740 64 64 67
190.287918 596.542053 325.920837 65 65 69
174.238464 605.574524 338.367950 127 127 132
185.559311 605.585754 341.783661 98 100 107
187.668884 604.961487 346.322479 106 107 113
179.124496 616.630249 331.927063 112 111 116
160.524109 629.114746 316.610077 48 49 53
168.872635 628.821411 330.653381 121 117 118
194.308121 617.634888 324.774536 89 86 86
176.397003 621.557007 332.988251 101 102 107
188.860245 617.285889 346.128235 87 88 93
183.480591 627.104492 330.815338 89 89 93
171.185791 636.589722 328.702576 85 87 93
182.087784 638.392273 337.925293 76 77 80
179.283020 638.420227 336.831451 76 77 81
214.671463 556.817139 255.038757 63 65 71
219.368576 571.916687 256.199982 75 79 86
217.865280 566.839111 261.634491 59 64 72
229.998703 528.032837 261.042419 150 146 149
241.919144 516.054321 261.247955 155 151 155
251.609756 524.919739 262.574860 159 155 159
212.706467 559.421326 376.195129 104 103 108
208.828583 547.007813 378.147461 55 57 62
215.316772 555.329590 379.038269 85 87 92
216.195221 549.017517 374.423309 56 56 59
238.384323 533.580811 385.364349 47 49 52
240.264221 539.170837 387.926605 53 55 59
226.681580 550.309509 378.682495 48 49 51
223.274170 553.761047 372.646606 54 54 56
233.653625 544.600830 376.249176 51 52 54
239.042908 549.569153 379.628387 74 76 82
239.074707 561.027283 376.210541 113 111 113
225.960175 567.788269 356.597229 54 54 56
236.950256 570.882202 369.935303 123 119 120
234.946289 572.740417 363.690399 120 116 117
233.263290 567.494019 373.243347 92 90 93
241.600327 563.664978 385.721893 104 103 107
201.588913 584.134216 258.435791 60 62 66
211.435059 583.151184 256.466278 56 58 62
224.701004 585.644958 259.809204 52 58 66
193.527802 614.718933 258.027985 87 84 85
197.484039 611.815613 262.990753 80 77 77
201.814606 602.944641 264.713623 80 78 78
196.292786 617.657959 279.266052 93 89 88
203.932495 614.402954 272.901855 79 77 78
210.510880 609.929199 275.207397 74 71 71
210.572388 613.014038 267.046448 65 64 65
221.537048 618.155518 270.004883 61 61 63
226.550461 619.256775 256.790771 87 86 88
215.891098 605.093872 266.610748 71 69 70
214.968094 614.369263 270.069885 58 57 59
