ply
format ascii 1.0
element vertex 1115
property float x
property float y
property float z
property uchar red
property uchar green
property uchar blue
end_header
281.000000 939.000000 250.000000 97 91 90
287.000000 949.000000 235.000000 139 125 115
256.000000 968.000000 164.000000 89 81 75
261.000000 974.000000 173.000000 78 73 69
274.000000 963.000000 183.000000 112 104 100
262.000000 1001.000000 198.000000 117 102 91
262.000000 1003.000000 208.000000 180 162 152
266.000000 999.000000 223.000000 184 167 157
265.000000 995.000000 247.000000 188 171 161
264.000000 819.000000 283.000000 45 40 43
258.000000 812.000000 294.000000 57 54 55
257.000000 825.000000 318.000000 181 155 146
287.000000 825.000000 311.000000 63 63 71
290.000000 785.000000 270.000000 71 64 61
289.000000 793.000000 265.000000 81 76 73
308.000000 797.000000 307.000000 125 116 112
299.000000 820.000000 260.000000 141 132 130
308.000000 811.000000 283.000000 117 105 98
313.000000 819.000000 271.000000 94 82 76
271.000000 797.000000 334.000000 179 148 139
270.000000 791.000000 337.000000 180 154 144
287.000000 794.000000 344.000000 183 154 140
277.000000 823.000000 327.000000 133 146 167
298.000000 802.000000 340.000000 201 162 147
268.000000 843.000000 274.000000 64 58 58
259.000000 859.000000 261.000000 120 105 96
259.000000 843.000000 300.000000 181 177 182
328.000000 797.000000 307.000000 186 172 165
328.000000 792.000000 312.000000 126 115 114
351.000000 796.000000 290.000000 84 78 76
329.000000 814.000000 285.000000 100 79 89
350.000000 803.000000 286.000000 121 108 104
341.000000 800.000000 297.000000 211 197 193
362.000000 780.000000 281.000000 121 110 105
364.000000 778.000000 283.000000 126 116 111
368.000000 773.000000 284.000000 136 125 121
363.000000 781.000000 289.000000 119 109 105
367.000000 776.000000 289.000000 129 119 115
369.000000 774.000000 295.000000 131 121 118
368.000000 776.000000 311.000000 127 118 114
361.000000 800.000000 258.000000 101 93 91
362.000000 805.000000 263.000000 173 161 156
342.000000 789.000000 333.000000 211 201 202
331.000000 783.000000 359.000000 225 216 218
334.000000 775.000000 368.000000 228 221 224
343.000000 775.000000 360.000000 130 118 114
341.000000 774.000000 364.000000 137 131 132
345.000000 780.000000 353.000000 127 111 102
353.000000 771.000000 355.000000 158 140 128
263.000000 971.000000 275.000000 166 148 136
268.000000 978.000000 266.000000 171 155 145
275.000000 975.000000 257.000000 169 155 146
127.000000 15.000000 163.000000 84 76 70
124.000000 19.000000 175.000000 111 102 97
125.000000 16.000000 187.000000 78 70 66
124.000000 21.000000 184.000000 115 105 99
126.000000 21.000000 197.000000 93 83 76
144.000000 26.000000 124.000000 100 94 92
146.000000 29.000000 123.000000 117 109 106
157.000000 29.000000 112.000000 95 89 87
187.000000 14.000000 78.000000 96 90 89
183.000000 25.000000 87.000000 71 67 66
179.000000 25.000000 91.000000 77 72 70
187.000000 18.000000 80.000000 99 92 89
170.000000 10.000000 107.000000 78 74 72
173.000000 10.000000 104.000000 80 76 74
167.000000 9.000000 119.000000 76 73 72
162.000000 28.000000 106.000000 87 82 81
166.000000 24.000000 106.000000 74 71 71
177.000000 9.000000 126.000000 78 74 73
177.000000 21.000000 96.000000 64 61 60
174.000000 54.000000 95.000000 83 79 79
174.000000 60.000000 95.000000 102 99 100
174.000000 63.000000 92.000000 99 96 98
176.000000 32.000000 93.000000 100 95 94
176.000000 38.000000 93.000000 112 106 105
180.000000 43.000000 92.000000 84 80 80
185.000000 63.000000 75.000000 71 67 66
190.000000 59.000000 73.000000 76 74 75
181.000000 55.000000 80.000000 71 68 68
176.000000 55.000000 89.000000 88 85 85
173.000000 42.000000 101.000000 100 93 90
166.000000 47.000000 115.000000 100 92 88
169.000000 58.000000 102.000000 94 91 92
170.000000 61.000000 124.000000 121 115 115
174.000000 67.000000 93.000000 100 96 97
175.000000 70.000000 91.000000 89 87 88
175.000000 81.000000 91.000000 105 101 102
181.000000 69.000000 78.000000 96 94 96
178.000000 76.000000 82.000000 105 102 105
177.000000 82.000000 87.000000 96 90 88
180.000000 92.000000 91.000000 84 81 81
187.000000 94.000000 80.000000 107 104 106
171.000000 64.000000 100.000000 85 82 83
170.000000 75.000000 105.000000 95 90 90
169.000000 74.000000 122.000000 81 71 64
173.000000 83.000000 126.000000 102 98 99
177.000000 86.000000 118.000000 84 80 79
177.000000 86.000000 124.000000 102 96 95
175.000000 104.000000 94.000000 83 79 78
184.000000 114.000000 85.000000 74 73 75
167.000000 107.000000 104.000000 94 90 90
169.000000 101.000000 104.000000 88 83 81
174.000000 107.000000 96.000000 94 93 96
172.000000 109.000000 98.000000 73 71 70
168.000000 102.000000 116.000000 126 120 119
175.000000 109.000000 124.000000 119 112 111
165.000000 118.000000 110.000000 124 118 118
164.000000 122.000000 109.000000 127 122 123
170.000000 118.000000 122.000000 100 94 93
206.000000 24.000000 60.000000 98 91 88
209.000000 30.000000 61.000000 92 86 83
215.000000 25.000000 56.000000 102 95 92
221.000000 23.000000 56.000000 93 85 81
213.000000 36.000000 60.000000 106 100 99
225.000000 19.000000 58.000000 64 59 56
196.000000 13.000000 65.000000 89 83 80
196.000000 10.000000 74.000000 94 87 85
196.000000 25.000000 70.000000 81 76 74
210.000000 9.000000 70.000000 57 54 53
222.000000 10.000000 68.000000 47 46 46
204.000000 9.000000 110.000000 67 62 60
195.000000 9.000000 124.000000 78 73 71
210.000000 10.000000 118.000000 65 60 58
209.000000 15.000000 124.000000 76 72 71
220.000000 13.000000 114.000000 62 58 56
211.000000 19.000000 123.000000 59 55 54
204.000000 44.000000 68.000000 80 79 80
202.000000 54.000000 66.000000 69 69 71
204.000000 62.000000 64.000000 81 77 76
208.000000 39.000000 64.000000 106 102 101
210.000000 46.000000 64.000000 75 72 72
219.000000 36.000000 125.000000 78 74 72
228.000000 12.000000 66.000000 45 44 44
227.000000 11.000000 78.000000 53 50 50
231.000000 11.000000 77.000000 57 53 52
231.000000 12.000000 84.000000 70 64 61
233.000000 12.000000 80.000000 67 61 58
236.000000 13.000000 94.000000 79 73 69
238.000000 31.000000 74.000000 106 97 92
237.000000 19.000000 94.000000 78 72 69
241.000000 22.000000 70.000000 94 87 83
240.000000 22.000000 89.000000 83 75 71
225.000000 11.000000 103.000000 62 57 55
226.000000 12.000000 106.000000 61 57 55
224.000000 20.000000 110.000000 67 61 58
232.000000 26.000000 100.000000 74 69 66
232.000000 30.000000 98.000000 77 70 66
231.000000 47.000000 70.000000 98 93 92
233.000000 40.000000 71.000000 118 110 106
238.000000 32.000000 82.000000 102 94 89
224.000000 58.000000 64.000000 94 88 85
230.000000 60.000000 68.000000 99 93 91
237.000000 49.000000 82.000000 89 85 83
238.000000 55.000000 82.000000 92 85 81
239.000000 58.000000 87.000000 94 87 84
240.000000 56.000000 92.000000 91 84 80
241.000000 62.000000 91.000000 93 86 82
235.000000 40.000000 97.000000 90 84 80
237.000000 46.000000 97.000000 68 64 62
234.000000 47.000000 104.000000 72 68 66
225.000000 39.000000 117.000000 75 71 71
226.000000 45.000000 119.000000 69 66 65
229.000000 47.000000 117.000000 73 70 68
239.000000 54.000000 98.000000 59 53 49
233.000000 60.000000 111.000000 88 84 83
230.000000 54.000000 115.000000 81 76 74
227.000000 54.000000 126.000000 67 63 61
228.000000 52.000000 120.000000 65 60 58
212.000000 66.000000 63.000000 95 90 88
216.000000 71.000000 62.000000 95 89 86
210.000000 85.000000 63.000000 111 109 111
197.000000 78.000000 66.000000 81 79 79
199.000000 81.000000 65.000000 97 94 96
196.000000 90.000000 72.000000 89 82 80
205.000000 80.000000 64.000000 100 98 100
202.000000 93.000000 71.000000 95 93 93
217.000000 86.000000 64.000000 79 77 77
198.000000 107.000000 71.000000 97 94 95
206.000000 98.000000 69.000000 92 89 89
193.000000 113.000000 74.000000 96 93 93
195.000000 119.000000 72.000000 93 89 88
208.000000 103.000000 68.000000 93 90 90
226.000000 73.000000 66.000000 101 95 92
235.000000 80.000000 77.000000 101 97 97
239.000000 81.000000 86.000000 103 98 98
239.000000 87.000000 82.000000 102 97 96
241.000000 77.000000 90.000000 105 100 99
242.000000 87.000000 94.000000 110 105 105
233.000000 66.000000 114.000000 88 84 83
235.000000 72.000000 116.000000 89 86 86
232.000000 95.000000 125.000000 92 88 87
241.000000 81.000000 97.000000 84 79 76
242.000000 80.000000 108.000000 84 80 78
241.000000 86.000000 106.000000 95 90 88
225.000000 99.000000 66.000000 103 100 101
224.000000 106.000000 67.000000 92 89 90
227.000000 105.000000 68.000000 114 111 113
231.000000 109.000000 79.000000 87 80 75
233.000000 97.000000 78.000000 131 125 125
237.000000 102.000000 95.000000 124 118 117
239.000000 100.000000 93.000000 132 125 124
231.000000 127.000000 79.000000 122 117 118
233.000000 119.000000 83.000000 95 91 89
234.000000 116.000000 92.000000 103 97 96
233.000000 109.000000 96.000000 82 73 66
236.000000 114.000000 108.000000 97 91 89
235.000000 121.000000 98.000000 94 89 87
235.000000 127.000000 126.000000 95 90 89
240.000000 99.000000 97.000000 122 115 114
241.000000 99.000000 107.000000 100 95 95
241.000000 97.000000 110.000000 94 87 84
134.000000 10.000000 158.000000 83 78 76
134.000000 17.000000 140.000000 75 71 68
145.000000 14.000000 129.000000 79 76 76
134.000000 7.000000 171.000000 79 74 72
129.000000 9.000000 176.000000 71 66 64
130.000000 8.000000 181.000000 70 65 62
131.000000 8.000000 188.000000 69 64 61
129.000000 26.000000 171.000000 137 127 124
154.000000 8.000000 170.000000 97 90 86
158.000000 46.000000 145.000000 118 110 108
137.000000 33.000000 185.000000 168 157 152
157.000000 35.000000 190.000000 156 141 132
177.000000 10.000000 139.000000 97 91 88
187.000000 10.000000 133.000000 90 85 83
181.000000 11.000000 157.000000 116 108 104
188.000000 13.000000 155.000000 112 104 101
168.000000 9.000000 166.000000 118 108 102
160.000000 8.000000 181.000000 118 108 104
176.000000 10.000000 177.000000 119 108 103
181.000000 16.000000 188.000000 125 116 113
161.000000 44.000000 151.000000 110 98 91
162.000000 48.000000 140.000000 117 107 103
173.000000 62.000000 131.000000 132 126 126
164.000000 48.000000 146.000000 130 118 111
178.000000 61.000000 137.000000 114 107 106
185.000000 61.000000 141.000000 126 119 117
176.000000 55.000000 148.000000 138 126 120
181.000000 59.000000 145.000000 127 115 108
161.000000 42.000000 160.000000 117 105 96
161.000000 40.000000 166.000000 151 139 133
168.000000 43.000000 164.000000 120 108 100
169.000000 35.000000 187.000000 164 148 139
181.000000 38.000000 173.000000 161 148 143
140.000000 9.000000 199.000000 74 68 64
143.000000 9.000000 202.000000 77 70 66
141.000000 11.000000 206.000000 78 71 67
139.000000 21.000000 211.000000 100 90 83
155.000000 26.000000 210.000000 145 133 128
138.000000 33.000000 198.000000 167 155 150
138.000000 33.000000 202.000000 168 156 150
147.000000 33.000000 203.000000 172 158 152
148.000000 32.000000 207.000000 166 152 146
154.000000 32.000000 204.000000 166 152 144
162.000000 9.000000 196.000000 103 94 89
166.000000 9.000000 193.000000 115 106 101
161.000000 10.000000 203.000000 91 82 76
174.000000 19.000000 198.000000 119 108 101
168.000000 30.000000 196.000000 166 152 145
187.000000 67.000000 138.000000 116 110 109
189.000000 65.000000 140.000000 119 113 113
179.000000 85.000000 135.000000 101 97 98
181.000000 82.000000 140.000000 94 89 87
184.000000 87.000000 143.000000 120 115 116
181.000000 103.000000 141.000000 84 76 70
185.000000 98.000000 140.000000 71 65 62
189.000000 108.000000 149.000000 72 65 62
191.000000 122.000000 152.000000 124 117 116
200.000000 15.000000 141.000000 89 84 82
193.000000 14.000000 148.000000 104 97 95
199.000000 21.000000 147.000000 93 86 82
197.000000 19.000000 155.000000 114 106 103
208.000000 23.000000 131.000000 69 65 63
196.000000 31.000000 161.000000 119 110 106
197.000000 44.000000 151.000000 129 119 115
194.000000 46.000000 154.000000 142 131 126
199.000000 42.000000 153.000000 118 105 95
204.000000 34.000000 151.000000 88 82 79
207.000000 38.000000 149.000000 108 100 96
205.000000 54.000000 142.000000 95 89 88
194.000000 56.000000 146.000000 105 96 91
202.000000 49.000000 145.000000 126 118 115
211.000000 40.000000 141.000000 90 81 76
219.000000 47.000000 129.000000 55 53 52
208.000000 59.000000 141.000000 102 97 96
214.000000 62.000000 138.000000 79 74 72
226.000000 63.000000 132.000000 84 80 80
195.000000 65.000000 142.000000 111 106 105
193.000000 70.000000 141.000000 82 76 74
203.000000 84.000000 147.000000 60 55 52
223.000000 66.000000 137.000000 83 78 77
223.000000 76.000000 136.000000 81 77 77
222.000000 80.000000 138.000000 69 67 67
220.000000 91.000000 143.000000 67 65 65
209.000000 91.000000 152.000000 61 58 56
196.000000 96.000000 145.000000 103 97 95
201.000000 100.000000 156.000000 107 102 101
205.000000 98.000000 159.000000 91 87 87
193.000000 112.000000 152.000000 89 83 81
194.000000 127.000000 155.000000 122 116 115
200.000000 114.000000 155.000000 98 93 91
223.000000 101.000000 143.000000 83 79 78
212.000000 101.000000 158.000000 75 72 72
215.000000 120.000000 159.000000 86 83 84
222.000000 115.000000 147.000000 90 86 85
203.000000 106.000000 161.000000 99 93 91
205.000000 109.000000 162.000000 99 92 89
212.000000 127.000000 166.000000 91 89 90
227.000000 95.000000 135.000000 85 79 77
158.000000 141.000000 123.000000 115 111 111
159.000000 144.000000 119.000000 124 119 121
159.000000 152.000000 126.000000 126 120 121
159.000000 157.000000 121.000000 120 115 116
170.000000 128.000000 89.000000 99 98 100
172.000000 131.000000 88.000000 94 92 93
173.000000 139.000000 83.000000 91 91 93
186.000000 139.000000 76.000000 85 82 83
182.000000 135.000000 80.000000 86 83 84
178.000000 146.000000 79.000000 76 72 71
180.000000 159.000000 72.000000 105 102 102
163.000000 129.000000 106.000000 98 96 98
161.000000 140.000000 109.000000 90 87 88
160.000000 142.000000 114.000000 106 102 101
164.000000 148.000000 98.000000 119 115 115
165.000000 162.000000 88.000000 118 114 114
167.000000 166.000000 90.000000 120 114 114
170.000000 173.000000 83.000000 121 117 120
169.000000 172.000000 90.000000 121 118 120
168.000000 184.000000 86.000000 93 87 84
178.000000 165.000000 74.000000 105 102 103
186.000000 188.000000 70.000000 115 112 114
165.000000 167.000000 99.000000 119 115 117
166.000000 166.000000 96.000000 123 119 120
165.000000 170.000000 107.000000 102 96 95
162.000000 165.000000 113.000000 120 116 118
162.000000 162.000000 124.000000 80 72 67
162.000000 166.000000 120.000000 108 104 104
164.000000 188.000000 109.000000 93 87 84
164.000000 187.000000 116.000000 114 109 108
159.000000 214.000000 108.000000 104 98 96
158.000000 225.000000 111.000000 101 99 101
150.000000 235.000000 122.000000 92 87 87
155.000000 230.000000 114.000000 119 116 118
154.000000 224.000000 122.000000 87 83 82
152.000000 229.000000 120.000000 105 101 101
153.000000 236.000000 116.000000 110 107 109
151.000000 245.000000 117.000000 118 115 118
147.000000 244.000000 126.000000 89 85 83
148.000000 247.000000 124.000000 103 100 100
173.000000 196.000000 77.000000 114 112 114
171.000000 206.000000 79.000000 121 116 117
167.000000 198.000000 86.000000 108 106 109
167.000000 213.000000 86.000000 127 121 121
179.000000 196.000000 75.000000 121 118 121
182.000000 205.000000 74.000000 104 100 100
164.000000 195.000000 113.000000 111 108 109
162.000000 219.000000 102.000000 100 95 95
160.000000 223.000000 106.000000 97 92 90
168.000000 225.000000 87.000000 90 81 76
174.000000 234.000000 81.000000 120 117 119
179.000000 231.000000 77.000000 120 117 120
184.000000 234.000000 75.000000 123 120 122
160.000000 228.000000 104.000000 99 96 97
194.000000 137.000000 71.000000 87 85 85
207.000000 132.000000 68.000000 98 94 95
205.000000 142.000000 68.000000 93 87 85
197.000000 147.000000 68.000000 91 85 83
201.000000 147.000000 67.000000 92 85 82
214.000000 143.000000 73.000000 115 112 114
220.000000 134.000000 73.000000 104 100 100
212.000000 155.000000 71.000000 116 113 114
194.000000 175.000000 71.000000 102 99 98
192.000000 177.000000 69.000000 114 111 113
194.000000 181.000000 69.000000 116 113 115
196.000000 187.000000 69.000000 100 95 94
206.000000 190.000000 69.000000 103 100 100
209.000000 160.000000 70.000000 119 114 115
208.000000 171.000000 72.000000 116 112 112
211.000000 176.000000 73.000000 96 92 90
216.000000 186.000000 73.000000 113 109 109
230.000000 133.000000 83.000000 129 124 125
236.000000 134.000000 91.000000 81 76 73
226.000000 152.000000 82.000000 114 110 111
238.000000 144.000000 95.000000 93 87 85
233.000000 154.000000 89.000000 118 112 110
237.000000 138.000000 96.000000 84 80 79
235.000000 134.000000 126.000000 86 81 79
232.000000 143.000000 112.000000 80 73 67
233.000000 136.000000 121.000000 112 104 101
232.000000 145.000000 115.000000 98 90 87
232.000000 152.000000 119.000000 89 80 75
234.000000 156.000000 114.000000 95 89 86
229.000000 168.000000 81.000000 113 109 109
230.000000 175.000000 82.000000 116 112 112
229.000000 180.000000 81.000000 108 102 100
233.000000 168.000000 122.000000 96 90 88
234.000000 172.000000 121.000000 94 89 88
236.000000 188.000000 106.000000 93 84 78
236.000000 187.000000 112.000000 92 83 77
195.000000 192.000000 69.000000 109 106 108
215.000000 207.000000 75.000000 128 124 125
213.000000 210.000000 74.000000 122 118 118
214.000000 222.000000 77.000000 130 125 126
223.000000 220.000000 82.000000 87 79 74
195.000000 227.000000 73.000000 113 108 108
197.000000 233.000000 75.000000 131 127 130
205.000000 225.000000 74.000000 131 128 130
205.000000 229.000000 75.000000 131 128 130
194.000000 251.000000 80.000000 106 102 102
215.000000 233.000000 79.000000 105 99 98
218.000000 224.000000 80.000000 126 121 121
211.000000 244.000000 80.000000 133 129 130
208.000000 248.000000 81.000000 126 122 123
228.000000 218.000000 91.000000 118 112 112
235.000000 202.000000 125.000000 91 83 80
234.000000 209.000000 106.000000 78 70 65
232.000000 220.000000 102.000000 94 87 83
234.000000 210.000000 118.000000 92 83 77
234.000000 215.000000 124.000000 97 88 82
233.000000 220.000000 114.000000 107 101 100
232.000000 221.000000 126.000000 102 97 96
224.000000 247.000000 93.000000 114 106 103
227.000000 236.000000 96.000000 119 112 111
231.000000 232.000000 113.000000 116 108 105
227.000000 247.000000 103.000000 130 124 123
165.000000 135.000000 128.000000 77 73 72
170.000000 139.000000 138.000000 90 87 87
171.000000 142.000000 139.000000 90 86 87
174.000000 143.000000 138.000000 75 72 71
166.000000 150.000000 137.000000 106 99 97
162.000000 152.000000 132.000000 128 123 123
168.000000 144.000000 140.000000 113 107 107
177.000000 140.000000 136.000000 86 81 80
184.000000 130.000000 134.000000 93 87 86
183.000000 149.000000 142.000000 107 102 103
187.000000 145.000000 142.000000 88 83 82
189.000000 149.000000 144.000000 94 87 84
161.000000 188.000000 133.000000 118 114 114
184.000000 164.000000 149.000000 111 103 100
187.000000 167.000000 150.000000 121 113 111
191.000000 161.000000 150.000000 98 93 93
180.000000 188.000000 143.000000 118 114 115
183.000000 187.000000 146.000000 121 116 116
185.000000 189.000000 149.000000 104 100 101
156.000000 198.000000 129.000000 130 124 125
143.000000 248.000000 149.000000 128 124 126
151.000000 226.000000 143.000000 118 114 114
149.000000 230.000000 139.000000 110 101 96
151.000000 228.000000 146.000000 124 121 122
149.000000 232.000000 151.000000 119 115 115
150.000000 233.000000 159.000000 103 100 102
155.000000 229.000000 160.000000 97 94 93
157.000000 231.000000 166.000000 102 98 98
146.000000 247.000000 164.000000 102 99 99
145.000000 248.000000 160.000000 109 104 103
146.000000 250.000000 169.000000 100 95 94
150.000000 248.000000 173.000000 102 97 95
153.000000 241.000000 171.000000 99 94 93
153.000000 245.000000 175.000000 99 95 95
169.000000 203.000000 144.000000 96 92 92
165.000000 217.000000 156.000000 109 107 109
171.000000 213.000000 159.000000 111 109 111
161.000000 223.000000 161.000000 112 110 112
190.000000 198.000000 161.000000 91 87 86
177.000000 216.000000 169.000000 101 98 99
160.000000 240.000000 179.000000 96 93 93
162.000000 251.000000 187.000000 100 96 95
181.000000 230.000000 181.000000 94 90 90
166.000000 254.000000 192.000000 101 96 96
196.000000 138.000000 142.000000 70 63 58
198.000000 133.000000 147.000000 76 66 58
205.000000 143.000000 152.000000 98 91 89
195.000000 151.000000 146.000000 101 95 93
205.000000 145.000000 148.000000 102 95 94
200.000000 153.000000 148.000000 112 107 108
205.000000 154.000000 149.000000 84 78 76
221.000000 132.000000 153.000000 87 83 82
220.000000 141.000000 158.000000 78 74 72
211.000000 153.000000 153.000000 114 108 106
213.000000 157.000000 153.000000 116 109 108
223.000000 147.000000 156.000000 73 69 67
217.000000 146.000000 167.000000 83 80 80
221.000000 148.000000 162.000000 87 83 83
198.000000 162.000000 152.000000 98 93 92
199.000000 170.000000 153.000000 94 85 80
203.000000 169.000000 154.000000 93 84 78
192.000000 176.000000 148.000000 118 110 109
206.000000 179.000000 153.000000 77 70 67
214.000000 162.000000 154.000000 100 95 93
215.000000 166.000000 157.000000 90 85 85
208.000000 175.000000 153.000000 89 81 78
218.000000 184.000000 157.000000 89 85 84
215.000000 160.000000 168.000000 109 104 102
220.000000 163.000000 170.000000 86 81 79
219.000000 169.000000 160.000000 100 94 94
221.000000 169.000000 169.000000 106 100 98
215.000000 189.000000 161.000000 93 88 88
234.000000 133.000000 131.000000 89 85 85
226.000000 135.000000 148.000000 67 64 64
236.000000 158.000000 139.000000 69 62 56
224.000000 152.000000 158.000000 86 82 81
233.000000 149.000000 144.000000 103 98 98
235.000000 161.000000 133.000000 67 61 57
236.000000 164.000000 141.000000 77 67 60
233.000000 174.000000 131.000000 98 92 90
236.000000 172.000000 141.000000 112 107 106
236.000000 170.000000 144.000000 111 106 105
236.000000 172.000000 149.000000 87 84 84
225.000000 185.000000 159.000000 103 97 96
236.000000 187.000000 146.000000 79 72 68
231.000000 182.000000 170.000000 97 95 97
229.000000 187.000000 164.000000 123 116 115
233.000000 177.000000 163.000000 93 88 86
233.000000 179.000000 167.000000 92 87 86
199.000000 198.000000 164.000000 90 87 87
198.000000 212.000000 172.000000 81 77 76
207.000000 223.000000 179.000000 100 95 95
210.000000 192.000000 162.000000 90 86 86
214.000000 196.000000 164.000000 82 77 76
208.000000 201.000000 167.000000 100 97 97
215.000000 209.000000 171.000000 91 87 88
209.000000 217.000000 176.000000 89 86 86
223.000000 253.000000 143.000000 108 102 101
194.000000 227.000000 180.000000 108 104 104
199.000000 231.000000 182.000000 91 87 88
213.000000 235.000000 181.000000 102 97 97
222.000000 253.000000 161.000000 75 66 59
213.000000 250.000000 183.000000 93 89 90
217.000000 246.000000 181.000000 94 90 90
221.000000 242.000000 179.000000 79 75 73
221.000000 253.000000 176.000000 92 85 80
233.000000 192.000000 132.000000 104 99 98
235.000000 198.000000 130.000000 82 76 72
233.000000 194.000000 136.000000 107 102 100
236.000000 195.000000 143.000000 119 111 109
235.000000 206.000000 128.000000 86 79 74
234.000000 216.000000 157.000000 103 96 94
236.000000 210.000000 166.000000 119 113 112
236.000000 216.000000 164.000000 119 114 113
234.000000 222.000000 168.000000 101 96 94
228.000000 237.000000 147.000000 105 99 97
226.000000 245.000000 135.000000 107 101 99
231.000000 232.000000 170.000000 97 92 91
224.000000 237.000000 176.000000 95 90 88
255.000000 241.000000 266.000000 83 72 63
254.000000 254.000000 268.000000 77 68 60
255.000000 243.000000 278.000000 96 88 83
253.000000 244.000000 273.000000 113 107 106
255.000000 245.000000 282.000000 127 122 121
126.000000 377.000000 124.000000 97 91 89
126.000000 300.000000 145.000000 97 85 75
125.000000 307.000000 143.000000 96 84 73
127.000000 309.000000 139.000000 95 83 72
127.000000 315.000000 141.000000 95 82 71
124.000000 307.000000 147.000000 98 85 74
123.000000 327.000000 151.000000 90 79 70
126.000000 324.000000 159.000000 92 79 68
122.000000 329.000000 158.000000 88 77 68
121.000000 332.000000 155.000000 91 80 71
122.000000 340.000000 138.000000 112 107 106
126.000000 350.000000 140.000000 82 77 76
123.000000 330.000000 161.000000 87 76 66
121.000000 334.000000 162.000000 89 78 69
117.000000 350.000000 169.000000 110 101 97
125.000000 345.000000 183.000000 121 115 115
113.000000 364.000000 155.000000 100 92 89
127.000000 375.000000 131.000000 91 83 79
125.000000 381.000000 129.000000 132 128 130
119.000000 373.000000 145.000000 98 96 97
119.000000 383.000000 147.000000 95 93 94
112.000000 376.000000 155.000000 123 120 122
115.000000 365.000000 166.000000 124 119 120
117.000000 361.000000 164.000000 124 119 120
120.000000 352.000000 183.000000 110 104 101
121.000000 355.000000 185.000000 108 101 98
113.000000 373.000000 161.000000 125 120 121
114.000000 372.000000 165.000000 106 98 94
113.000000 382.000000 171.000000 128 122 122
118.000000 373.000000 185.000000 119 113 112
116.000000 378.000000 181.000000 123 118 119
123.000000 363.000000 192.000000 97 88 83
127.000000 362.000000 195.000000 95 87 83
122.000000 374.000000 192.000000 130 123 123
127.000000 372.000000 197.000000 97 92 92
122.000000 380.000000 192.000000 117 109 106
126.000000 379.000000 198.000000 80 76 76
125.000000 387.000000 119.000000 129 126 128
125.000000 414.000000 104.000000 129 124 125
121.000000 403.000000 113.000000 108 100 96
110.000000 441.000000 125.000000 103 99 99
123.000000 417.000000 111.000000 100 96 96
127.000000 418.000000 106.000000 112 107 107
126.000000 431.000000 109.000000 84 81 81
118.000000 426.000000 115.000000 115 111 113
120.000000 416.000000 114.000000 100 97 99
114.000000 436.000000 121.000000 108 104 105
111.000000 464.000000 127.000000 132 127 128
121.000000 458.000000 109.000000 119 115 117
126.000000 460.000000 104.000000 101 95 94
113.000000 465.000000 124.000000 137 131 132
114.000000 471.000000 126.000000 110 100 95
116.000000 473.000000 122.000000 111 102 98
126.000000 491.000000 111.000000 120 116 118
116.000000 482.000000 127.000000 141 137 139
116.000000 485.000000 125.000000 125 120 119
115.000000 488.000000 127.000000 109 102 100
118.000000 501.000000 123.000000 117 114 116
127.000000 510.000000 125.000000 73 73 76
111.000000 393.000000 156.000000 138 134 137
109.000000 412.000000 156.000000 81 75 72
124.000000 386.000000 131.000000 88 82 79
127.000000 388.000000 144.000000 85 79 76
124.000000 401.000000 130.000000 141 138 140
120.000000 401.000000 142.000000 112 108 109
117.000000 408.000000 151.000000 99 95 95
112.000000 412.000000 154.000000 80 76 74
122.000000 401.000000 147.000000 99 95 95
122.000000 408.000000 148.000000 100 97 98
105.000000 412.000000 166.000000 130 126 129
116.000000 384.000000 181.000000 124 119 119
108.000000 430.000000 156.000000 116 113 115
118.000000 422.000000 138.000000 120 114 113
114.000000 430.000000 129.000000 124 119 119
117.000000 427.000000 133.000000 127 122 123
117.000000 431.000000 135.000000 129 124 124
119.000000 418.000000 149.000000 106 100 98
115.000000 423.000000 152.000000 115 112 113
120.000000 416.000000 144.000000 104 100 100
115.000000 447.000000 148.000000 116 111 111
116.000000 443.000000 148.000000 112 106 104
108.000000 433.000000 165.000000 131 126 127
108.000000 441.000000 166.000000 144 140 143
109.000000 445.000000 171.000000 143 138 140
112.000000 424.000000 180.000000 103 94 89
113.000000 428.000000 181.000000 138 132 132
112.000000 432.000000 180.000000 139 134 135
116.000000 445.000000 184.000000 120 112 109
124.000000 402.000000 196.000000 107 101 99
123.000000 413.000000 197.000000 128 123 124
122.000000 418.000000 196.000000 127 121 122
126.000000 428.000000 200.000000 141 136 137
125.000000 447.000000 197.000000 121 115 114
111.000000 477.000000 135.000000 117 111 109
112.000000 460.000000 146.000000 136 131 133
112.000000 468.000000 130.000000 112 104 101
114.000000 475.000000 128.000000 110 103 101
115.000000 470.000000 154.000000 144 141 144
109.000000 463.000000 161.000000 133 130 133
109.000000 461.000000 171.000000 131 125 125
114.000000 457.000000 181.000000 117 109 105
113.000000 467.000000 178.000000 136 131 133
115.000000 478.000000 183.000000 120 111 107
110.000000 488.000000 141.000000 118 113 113
110.000000 483.000000 152.000000 118 111 109
109.000000 499.000000 148.000000 143 139 141
111.000000 511.000000 148.000000 124 119 121
113.000000 485.000000 132.000000 106 100 98
113.000000 500.000000 132.000000 136 132 134
112.000000 508.000000 142.000000 129 124 125
110.000000 503.000000 169.000000 125 118 117
111.000000 504.000000 174.000000 121 113 110
118.000000 493.000000 190.000000 102 94 90
112.000000 511.000000 178.000000 131 125 125
115.000000 505.000000 185.000000 123 115 113
121.000000 449.000000 193.000000 111 101 96
125.000000 476.000000 197.000000 112 102 97
125.000000 502.000000 198.000000 136 130 131
121.000000 507.000000 196.000000 123 117 117
147.000000 258.000000 126.000000 118 115 118
148.000000 257.000000 123.000000 110 106 106
153.000000 257.000000 113.000000 106 103 104
154.000000 268.000000 119.000000 79 78 80
158.000000 271.000000 113.000000 96 91 91
152.000000 268.000000 125.000000 89 86 87
153.000000 282.000000 123.000000 108 106 107
135.000000 311.000000 126.000000 87 78 70
135.000000 317.000000 126.000000 88 77 67
146.000000 300.000000 122.000000 103 101 102
159.000000 307.000000 110.000000 111 108 109
150.000000 317.000000 113.000000 123 120 121
174.000000 262.000000 87.000000 118 110 107
175.000000 273.000000 92.000000 99 95 94
178.000000 267.000000 88.000000 117 110 107
176.000000 269.000000 90.000000 119 112 110
190.000000 264.000000 83.000000 118 110 107
184.000000 272.000000 87.000000 109 103 101
165.000000 274.000000 98.000000 93 88 87
160.000000 272.000000 108.000000 105 100 101
160.000000 277.000000 110.000000 108 104 104
168.000000 287.000000 101.000000 111 107 108
174.000000 280.000000 96.000000 114 111 113
191.000000 288.000000 94.000000 97 94 94
189.000000 298.000000 95.000000 101 94 91
166.000000 292.000000 109.000000 112 109 111
171.000000 291.000000 105.000000 84 80 79
169.000000 294.000000 106.000000 115 112 114
160.000000 292.000000 115.000000 93 90 90
161.000000 295.000000 113.000000 89 86 86
166.000000 304.000000 106.000000 103 98 96
170.000000 305.000000 104.000000 119 115 115
174.000000 309.000000 104.000000 92 85 82
170.000000 314.000000 107.000000 114 110 111
176.000000 303.000000 102.000000 104 100 101
176.000000 307.000000 102.000000 97 91 89
180.000000 316.000000 104.000000 95 92 93
185.000000 306.000000 98.000000 112 109 110
151.000000 323.000000 113.000000 125 122 124
159.000000 330.000000 115.000000 72 65 60
134.000000 362.000000 124.000000 73 70 69
141.000000 356.000000 122.000000 101 98 99
139.000000 372.000000 111.000000 116 111 110
132.000000 372.000000 116.000000 97 93 92
131.000000 370.000000 122.000000 72 71 72
129.000000 371.000000 126.000000 107 102 102
131.000000 379.000000 113.000000 85 80 78
148.000000 381.000000 97.000000 103 99 99
166.000000 322.000000 110.000000 99 96 96
162.000000 330.000000 110.000000 77 70 66
172.000000 332.000000 105.000000 122 118 119
161.000000 348.000000 110.000000 100 95 94
177.000000 321.000000 104.000000 112 109 110
189.000000 328.000000 102.000000 68 63 61
179.000000 340.000000 100.000000 110 106 106
180.000000 350.000000 104.000000 78 74 74
166.000000 369.000000 95.000000 124 121 123
185.000000 371.000000 94.000000 98 93 92
168.000000 365.000000 99.000000 109 106 107
194.000000 259.000000 81.000000 117 110 106
197.000000 271.000000 86.000000 125 117 114
193.000000 279.000000 88.000000 116 112 113
199.000000 283.000000 90.000000 116 112 113
197.000000 285.000000 92.000000 112 109 110
204.000000 279.000000 89.000000 106 100 97
203.000000 283.000000 89.000000 122 118 119
220.000000 270.000000 95.000000 130 125 124
209.000000 275.000000 91.000000 126 120 119
210.000000 279.000000 91.000000 132 128 129
212.000000 273.000000 90.000000 104 99 99
213.000000 279.000000 93.000000 130 125 126
223.000000 261.000000 99.000000 111 105 103
220.000000 276.000000 98.000000 110 103 101
201.000000 294.000000 95.000000 112 108 109
192.000000 308.000000 95.000000 120 117 119
206.000000 298.000000 96.000000 114 110 110
201.000000 313.000000 97.000000 117 113 114
214.000000 293.000000 96.000000 132 128 129
219.000000 288.000000 103.000000 114 107 105
219.000000 295.000000 104.000000 130 123 122
220.000000 291.000000 105.000000 100 94 92
209.000000 307.000000 101.000000 122 117 118
215.000000 307.000000 104.000000 120 113 111
225.000000 256.000000 124.000000 103 97 95
224.000000 284.000000 118.000000 117 111 110
224.000000 280.000000 120.000000 104 98 96
225.000000 287.000000 123.000000 116 111 109
224.000000 291.000000 118.000000 93 85 80
225.000000 318.000000 118.000000 116 110 109
199.000000 326.000000 100.000000 120 117 118
196.000000 332.000000 103.000000 65 63 63
211.000000 344.000000 103.000000 126 121 121
195.000000 372.000000 92.000000 109 105 105
210.000000 379.000000 90.000000 124 119 118
214.000000 383.000000 90.000000 116 110 109
192.000000 362.000000 98.000000 94 89 88
212.000000 353.000000 108.000000 106 101 101
213.000000 372.000000 97.000000 120 117 118
220.000000 375.000000 103.000000 120 115 116
220.000000 368.000000 107.000000 107 102 101
218.000000 380.000000 100.000000 117 112 111
220.000000 381.000000 106.000000 115 109 109
226.000000 332.000000 118.000000 103 96 93
228.000000 332.000000 124.000000 95 88 84
226.000000 337.000000 116.000000 119 114 113
228.000000 340.000000 126.000000 112 107 107
226.000000 361.000000 122.000000 109 102 100
229.000000 367.000000 120.000000 106 102 101
228.000000 368.000000 117.000000 126 121 122
231.000000 370.000000 126.000000 108 102 98
137.000000 271.000000 150.000000 119 114 113
139.000000 269.000000 159.000000 92 85 82
139.000000 276.000000 139.000000 79 72 66
137.000000 278.000000 141.000000 84 76 69
141.000000 278.000000 137.000000 79 72 67
135.000000 275.000000 148.000000 119 114 115
136.000000 280.000000 157.000000 122 117 117
147.000000 260.000000 130.000000 113 107 106
149.000000 270.000000 134.000000 73 67 62
152.000000 269.000000 131.000000 85 81 81
145.000000 275.000000 135.000000 79 71 66
147.000000 279.000000 132.000000 81 74 69
151.000000 275.000000 130.000000 76 72 70
142.000000 259.000000 166.000000 115 111 111
141.000000 265.000000 167.000000 92 85 81
140.000000 271.000000 164.000000 119 113 112
138.000000 280.000000 161.000000 128 124 125
145.000000 281.000000 183.000000 109 100 95
148.000000 286.000000 187.000000 110 101 97
129.000000 294.000000 142.000000 88 78 70
140.000000 294.000000 131.000000 80 73 68
133.000000 296.000000 155.000000 123 118 119
131.000000 318.000000 131.000000 87 77 69
144.000000 293.000000 130.000000 78 71 67
138.000000 293.000000 170.000000 138 134 136
140.000000 289.000000 174.000000 122 117 118
140.000000 303.000000 168.000000 132 126 127
141.000000 290.000000 179.000000 110 101 96
128.000000 312.000000 160.000000 79 69 61
134.000000 313.000000 163.000000 76 69 65
156.000000 304.000000 188.000000 107 98 93
154.000000 314.000000 182.000000 114 108 108
163.000000 314.000000 188.000000 122 116 116
168.000000 314.000000 189.000000 125 120 120
173.000000 319.000000 187.000000 93 88 87
180.000000 317.000000 188.000000 100 95 94
191.000000 309.000000 189.000000 85 80 79
165.000000 269.000000 197.000000 106 100 97
168.000000 263.000000 197.000000 105 99 98
174.000000 261.000000 197.000000 100 95 94
173.000000 275.000000 200.000000 103 95 92
190.000000 260.000000 195.000000 90 84 82
186.000000 265.000000 197.000000 94 88 85
162.000000 295.000000 193.000000 116 105 100
164.000000 292.000000 196.000000 110 101 97
167.000000 299.000000 195.000000 106 96 91
179.000000 291.000000 198.000000 90 82 78
185.000000 300.000000 194.000000 105 99 98
133.000000 321.000000 130.000000 87 77 69
133.000000 325.000000 130.000000 87 77 70
136.000000 335.000000 133.000000 104 102 104
128.000000 338.000000 135.000000 114 111 112
137.000000 345.000000 137.000000 95 93 94
138.000000 322.000000 175.000000 75 68 61
143.000000 324.000000 180.000000 76 68 62
143.000000 332.000000 190.000000 89 77 68
135.000000 340.000000 189.000000 82 73 66
146.000000 326.000000 182.000000 75 67 62
159.000000 329.000000 191.000000 63 58 53
135.000000 359.000000 133.000000 92 89 89
134.000000 360.000000 129.000000 86 82 81
132.000000 365.000000 141.000000 98 94 95
164.000000 328.000000 190.000000 63 56 51
180.000000 321.000000 188.000000 87 82 81
181.000000 324.000000 191.000000 78 73 71
155.000000 331.000000 195.000000 82 72 63
148.000000 340.000000 198.000000 87 77 68
150.000000 342.000000 201.000000 82 73 65
137.000000 357.000000 201.000000 96 90 88
135.000000 372.000000 204.000000 145 137 135
152.000000 381.000000 207.000000 135 129 129
167.000000 329.000000 193.000000 73 65 60
175.000000 334.000000 200.000000 79 69 61
162.000000 345.000000 206.000000 91 79 67
174.000000 344.000000 205.000000 82 71 62
176.000000 328.000000 194.000000 71 64 58
180.000000 350.000000 204.000000 86 82 80
185.000000 348.000000 200.000000 62 56 52
172.000000 357.000000 207.000000 110 105 105
175.000000 362.000000 204.000000 111 106 105
165.000000 364.000000 208.000000 136 131 133
171.000000 374.000000 206.000000 123 118 119
177.000000 357.000000 205.000000 78 70 67
188.000000 352.000000 196.000000 62 59 59
187.000000 367.000000 196.000000 92 86 85
185.000000 374.000000 196.000000 97 92 92
187.000000 380.000000 196.000000 110 105 104
222.000000 263.000000 137.000000 78 72 69
220.000000 270.000000 143.000000 66 58 53
219.000000 260.000000 151.000000 94 89 87
218.000000 265.000000 158.000000 84 78 75
221.000000 275.000000 138.000000 59 52 46
220.000000 281.000000 140.000000 69 63 58
201.000000 275.000000 190.000000 80 74 72
201.000000 286.000000 190.000000 69 63 60
220.000000 257.000000 166.000000 73 63 55
219.000000 257.000000 172.000000 74 64 54
216.000000 268.000000 168.000000 74 65 56
218.000000 256.000000 178.000000 77 70 67
215.000000 279.000000 165.000000 86 83 82
213.000000 283.000000 172.000000 75 65 54
216.000000 299.000000 154.000000 104 97 94
222.000000 305.000000 149.000000 82 78 76
203.000000 294.000000 187.000000 89 85 85
198.000000 318.000000 188.000000 69 63 60
204.000000 318.000000 186.000000 71 63 58
214.000000 303.000000 163.000000 67 61 57
212.000000 295.000000 178.000000 68 60 53
212.000000 309.000000 175.000000 64 56 50
225.000000 293.000000 135.000000 84 77 73
226.000000 299.000000 140.000000 92 87 86
228.000000 316.000000 143.000000 71 67 66
197.000000 269.000000 194.000000 70 67 67
194.000000 274.000000 195.000000 76 70 67
192.000000 278.000000 195.000000 71 63 58
255.000000 289.000000 252.000000 87 84 84
254.000000 306.000000 239.000000 91 89 91
249.000000 315.000000 239.000000 90 88 89
217.000000 321.000000 155.000000 52 50 50
205.000000 329.000000 174.000000 70 67 67
199.000000 323.000000 186.000000 64 57 52
200.000000 327.000000 181.000000 63 57 52
215.000000 324.000000 161.000000 77 74 73
209.000000 321.000000 170.000000 66 63 62
223.000000 351.000000 169.000000 93 90 90
220.000000 349.000000 175.000000 108 106 109
212.000000 349.000000 182.000000 76 72 72
217.000000 344.000000 176.000000 97 94 95
216.000000 347.000000 180.000000 88 86 88
204.000000 359.000000 189.000000 100 95 95
201.000000 362.000000 191.000000 101 96 96
207.000000 380.000000 190.000000 74 72 72
212.000000 355.000000 183.000000 60 57 56
210.000000 366.000000 186.000000 69 66 66
213.000000 361.000000 185.000000 63 59 58
219.000000 354.000000 178.000000 60 56 55
210.000000 377.000000 188.000000 83 81 82
223.000000 382.000000 180.000000 83 81 83
228.000000 322.000000 147.000000 92 88 88
228.000000 326.000000 149.000000 106 101 100
225.000000 335.000000 157.000000 90 83 80
230.000000 337.000000 134.000000 90 82 77
227.000000 338.000000 151.000000 65 59 54
227.000000 342.000000 149.000000 98 94 93
228.000000 340.000000 144.000000 111 105 104
227.000000 346.000000 144.000000 89 81 75
225.000000 351.000000 162.000000 102 97 95
230.000000 355.000000 131.000000 101 95 93
230.000000 359.000000 129.000000 79 71 66
228.000000 355.000000 138.000000 72 64 57
229.000000 366.000000 130.000000 112 105 102
231.000000 366.000000 136.000000 103 98 96
225.000000 356.000000 153.000000 82 76 75
231.000000 363.000000 146.000000 98 95 95
225.000000 360.000000 154.000000 68 62 59
225.000000 360.000000 158.000000 75 70 66
230.000000 367.000000 155.000000 95 91 91
230.000000 382.000000 137.000000 94 89 87
233.000000 373.000000 140.000000 106 100 97
235.000000 376.000000 143.000000 116 108 103
236.000000 380.000000 148.000000 103 99 98
234.000000 383.000000 157.000000 97 94 95
224.000000 358.000000 171.000000 87 85 85
225.000000 360.000000 164.000000 75 72 72
226.000000 363.000000 169.000000 84 81 81
224.000000 365.000000 174.000000 86 82 83
229.000000 369.000000 161.000000 99 96 96
228.000000 370.000000 165.000000 105 102 104
227.000000 380.000000 174.000000 84 83 84
228.000000 376.000000 168.000000 84 82 83
194.000000 336.000000 194.000000 64 57 52
209.000000 382.000000 192.000000 64 60 59
221.000000 376.000000 242.000000 84 81 81
251.000000 350.000000 218.000000 73 71 71
238.000000 321.000000 254.000000 107 103 104
235.000000 335.000000 252.000000 78 73 70
237.000000 333.000000 250.000000 85 82 82
238.000000 340.000000 239.000000 95 92 93
239.000000 350.000000 231.000000 89 88 90
233.000000 341.000000 253.000000 108 101 99
235.000000 345.000000 240.000000 103 100 101
254.000000 327.000000 225.000000 61 57 55
237.000000 375.000000 215.000000 93 92 94
253.000000 367.000000 200.000000 76 75 76
227.000000 353.000000 254.000000 101 99 100
225.000000 366.000000 246.000000 102 99 100
228.000000 362.000000 241.000000 75 70 67
228.000000 372.000000 233.000000 78 75 74
225.000000 383.000000 229.000000 87 84 85
240.000000 353.000000 229.000000 87 86 88
141.000000 403.000000 94.000000 103 97 96
148.000000 385.000000 92.000000 123 120 121
153.000000 389.000000 87.000000 105 100 100
145.000000 408.000000 95.000000 96 93 93
154.000000 409.000000 91.000000 121 118 120
129.000000 385.000000 110.000000 121 118 119
137.000000 398.000000 97.000000 113 110 111
128.000000 384.000000 113.000000 95 91 91
132.000000 408.000000 99.000000 98 92 91
140.000000 415.000000 98.000000 109 106 107
148.000000 420.000000 95.000000 106 102 103
153.000000 418.000000 93.000000 110 106 107
157.000000 422.000000 91.000000 113 109 110
154.000000 427.000000 94.000000 104 100 101
139.000000 427.000000 99.000000 86 80 78
139.000000 434.000000 99.000000 102 99 101
137.000000 439.000000 97.000000 110 107 108
138.000000 446.000000 96.000000 117 112 111
169.000000 394.000000 79.000000 124 120 120
160.000000 389.000000 84.000000 119 116 116
170.000000 388.000000 83.000000 104 102 103
174.000000 415.000000 76.000000 124 121 123
164.000000 405.000000 80.000000 121 117 119
161.000000 410.000000 84.000000 101 98 99
164.000000 410.000000 82.000000 116 112 114
187.000000 397.000000 79.000000 106 102 103
183.000000 387.000000 86.000000 123 119 119
180.000000 402.000000 75.000000 135 131 133
183.000000 408.000000 75.000000 108 103 104
180.000000 414.000000 77.000000 101 98 100
187.000000 403.000000 77.000000 135 132 134
191.000000 401.000000 79.000000 127 123 124
189.000000 407.000000 77.000000 128 125 127
170.000000 428.000000 84.000000 106 103 104
165.000000 438.000000 86.000000 67 68 72
165.000000 446.000000 89.000000 106 103 103
174.000000 442.000000 82.000000 110 106 107
186.000000 417.000000 78.000000 107 104 105
176.000000 433.000000 87.000000 78 75 74
183.000000 442.000000 83.000000 76 74 75
182.000000 447.000000 80.000000 99 96 98
168.000000 500.000000 60.000000 110 102 97
175.000000 500.000000 59.000000 112 103 98
174.000000 507.000000 57.000000 95 89 86
181.000000 502.000000 55.000000 112 104 100
178.000000 506.000000 54.000000 100 93 90
181.000000 511.000000 48.000000 82 78 77
145.000000 463.000000 94.000000 119 116 118
156.000000 450.000000 90.000000 95 90 89
154.000000 460.000000 90.000000 122 119 121
147.000000 467.000000 93.000000 124 121 122
158.000000 464.000000 90.000000 108 105 106
140.000000 450.000000 96.000000 103 98 96
136.000000 463.000000 99.000000 106 102 102
129.000000 471.000000 104.000000 114 110 111
141.000000 467.000000 96.000000 111 107 109
144.000000 472.000000 96.000000 104 102 104
143.000000 504.000000 77.000000 105 98 94
158.000000 495.000000 92.000000 98 90 87
158.000000 497.000000 68.000000 110 102 98
153.000000 498.000000 74.000000 108 101 97
151.000000 508.000000 89.000000 77 71 68
154.000000 499.000000 80.000000 107 99 95
158.000000 498.000000 87.000000 105 100 99
130.000000 483.000000 106.000000 113 109 109
134.000000 482.000000 104.000000 80 75 73
132.000000 492.000000 109.000000 87 84 86
141.000000 504.000000 107.000000 93 91 92
141.000000 510.000000 105.000000 103 100 102
128.000000 500.000000 118.000000 98 96 98
129.000000 506.000000 120.000000 89 87 89
144.000000 484.000000 99.000000 95 93 95
145.000000 506.000000 103.000000 85 83 85
169.000000 448.000000 87.000000 98 94 95
175.000000 458.000000 84.000000 134 130 131
173.000000 474.000000 88.000000 74 71 70
179.000000 452.000000 84.000000 95 93 94
178.000000 456.000000 85.000000 120 116 118
184.000000 454.000000 83.000000 103 101 103
189.000000 460.000000 83.000000 92 89 91
176.000000 464.000000 84.000000 77 76 78
178.000000 470.000000 86.000000 100 97 98
189.000000 466.000000 84.000000 100 98 100
189.000000 469.000000 86.000000 71 70 71
161.000000 490.000000 91.000000 92 89 89
181.000000 494.000000 76.000000 104 99 98
179.000000 492.000000 82.000000 112 109 111
190.000000 480.000000 87.000000 96 93 94
189.000000 490.000000 82.000000 103 100 101
198.000000 398.000000 82.000000 91 84 81
201.000000 402.000000 80.000000 124 118 117
204.000000 400.000000 84.000000 123 118 118
206.000000 407.000000 95.000000 116 110 108
202.000000 409.000000 88.000000 84 80 79
208.000000 388.000000 86.000000 126 122 122
209.000000 395.000000 90.000000 66 61 59
219.000000 389.000000 104.000000 117 113 114
223.000000 390.000000 120.000000 111 106 105
196.000000 416.000000 78.000000 119 117 120
197.000000 420.000000 80.000000 122 117 118
205.000000 420.000000 95.000000 116 111 111
207.000000 425.000000 95.000000 81 75 71
194.000000 445.000000 81.000000 94 92 94
203.000000 446.000000 103.000000 102 98 97
218.000000 442.000000 107.000000 76 74 75
237.000000 434.000000 117.000000 121 116 116
239.000000 436.000000 123.000000 111 106 106
194.000000 511.000000 47.000000 81 77 75
200.000000 509.000000 45.000000 110 102 96
199.000000 503.000000 55.000000 119 111 106
192.000000 502.000000 56.000000 115 107 102
198.000000 507.000000 48.000000 115 106 101
203.000000 506.000000 50.000000 115 107 104
198.000000 453.000000 90.000000 84 81 81
193.000000 460.000000 83.000000 108 105 106
199.000000 463.000000 86.000000 106 104 106
201.000000 463.000000 92.000000 83 78 77
223.000000 477.000000 90.000000 108 102 100
207.000000 462.000000 100.000000 108 103 103
222.000000 460.000000 111.000000 110 106 107
216.000000 469.000000 103.000000 89 86 86
217.000000 470.000000 100.000000 116 112 114
223.000000 472.000000 96.000000 106 102 102
199.000000 492.000000 80.000000 87 83 83
201.000000 495.000000 80.000000 98 94 94
197.000000 502.000000 66.000000 107 101 99
194.000000 496.000000 79.000000 115 112 113
210.000000 481.000000 86.000000 128 123 124
208.000000 507.000000 71.000000 77 73 72
211.000000 507.000000 76.000000 108 105 105
223.000000 500.000000 85.000000 99 93 91
217.000000 509.000000 80.000000 100 95 94
233.000000 475.000000 95.000000 123 119 121
234.000000 465.000000 101.000000 138 135 136
242.000000 461.000000 111.000000 95 91 91
242.000000 449.000000 126.000000 93 88 88
249.000000 459.000000 127.000000 94 89 87
249.000000 471.000000 113.000000 119 114 115
250.000000 464.000000 125.000000 99 94 91
227.000000 504.000000 86.000000 123 119 120
231.000000 507.000000 88.000000 140 136 138
239.000000 503.000000 92.000000 127 123 124
241.000000 486.000000 97.000000 111 105 104
247.000000 486.000000 101.000000 119 114 114
243.000000 490.000000 97.000000 141 136 138
251.000000 502.000000 99.000000 135 130 131
