ply
format ascii 1.0
element vertex 1087
property float x
property float y
property float z
property uchar red
property uchar green
property uchar blue
end_header
283.000000 287.000000 323.000000 117 108 103
299.000000 259.000000 321.000000 107 100 97
289.000000 272.000000 324.000000 113 105 102
305.000000 271.000000 323.000000 120 111 107
292.000000 303.000000 322.000000 132 121 115
307.000000 297.000000 321.000000 132 127 129
265.000000 346.000000 304.000000 101 86 72
271.000000 367.000000 310.000000 124 118 119
266.000000 371.000000 307.000000 156 151 153
282.000000 372.000000 312.000000 154 147 147
280.000000 383.000000 310.000000 162 155 157
295.000000 328.000000 311.000000 130 121 117
310.000000 350.000000 309.000000 97 83 72
319.000000 340.000000 307.000000 108 93 80
295.000000 356.000000 312.000000 90 78 67
291.000000 363.000000 312.000000 118 107 101
300.000000 382.000000 305.000000 165 157 157
348.000000 263.000000 258.000000 114 106 101
330.000000 287.000000 291.000000 98 84 70
332.000000 293.000000 280.000000 122 116 114
331.000000 317.000000 282.000000 99 89 82
337.000000 311.000000 270.000000 115 102 94
327.000000 299.000000 300.000000 100 86 74
330.000000 290.000000 288.000000 101 86 73
326.000000 312.000000 302.000000 105 90 77
328.000000 313.000000 294.000000 106 91 77
335.000000 339.000000 272.000000 144 137 135
337.000000 328.000000 267.000000 132 124 123
336.000000 324.000000 273.000000 128 121 119
331.000000 371.000000 279.000000 145 138 137
324.000000 381.000000 292.000000 117 112 113
260.000000 387.000000 302.000000 161 156 159
275.000000 384.000000 309.000000 167 162 165
281.000000 409.000000 304.000000 117 109 105
281.000000 446.000000 292.000000 177 172 175
296.000000 395.000000 304.000000 174 169 172
316.000000 384.000000 301.000000 164 158 161
318.000000 396.000000 295.000000 149 138 134
292.000000 438.000000 299.000000 115 103 95
312.000000 427.000000 288.000000 156 150 151
261.000000 451.000000 285.000000 159 153 156
269.000000 469.000000 282.000000 136 123 117
264.000000 482.000000 277.000000 146 135 132
270.000000 500.000000 270.000000 142 133 130
317.000000 462.000000 272.000000 96 86 79
290.000000 494.000000 273.000000 151 142 141
295.000000 498.000000 271.000000 143 137 138
300.000000 499.000000 269.000000 150 142 141
315.000000 484.000000 269.000000 144 136 135
334.000000 392.000000 270.000000 137 131 132
324.000000 402.000000 284.000000 149 141 140
337.000000 386.000000 262.000000 135 130 130
338.000000 395.000000 258.000000 136 129 127
332.000000 433.000000 259.000000 137 131 132
322.000000 450.000000 272.000000 104 91 83
325.000000 475.000000 258.000000 107 96 88
323.000000 475.000000 267.000000 109 99 92
322.000000 484.000000 257.000000 137 129 127
125.000000 516.000000 113.000000 68 66 68
120.000000 522.000000 112.000000 89 85 83
124.000000 574.000000 78.000000 83 77 75
125.000000 565.000000 85.000000 104 96 90
103.000000 568.000000 110.000000 86 82 80
113.000000 559.000000 105.000000 76 72 72
89.000000 604.000000 119.000000 51 55 61
94.000000 608.000000 112.000000 57 61 67
122.000000 595.000000 82.000000 99 93 91
100.000000 581.000000 110.000000 84 81 80
104.000000 614.000000 91.000000 56 59 64
117.000000 629.000000 95.000000 50 54 61
118.000000 634.000000 89.000000 45 48 53
106.000000 620.000000 110.000000 56 59 64
104.000000 625.000000 99.000000 70 74 82
109.000000 630.000000 98.000000 76 80 89
63.000000 631.000000 171.000000 110 107 109
63.000000 629.000000 176.000000 108 106 108
110.000000 524.000000 146.000000 133 128 130
115.000000 532.000000 134.000000 68 61 56
112.000000 536.000000 155.000000 138 134 136
110.000000 520.000000 165.000000 144 139 142
115.000000 515.000000 187.000000 141 136 137
99.000000 564.000000 130.000000 69 70 74
114.000000 550.000000 156.000000 125 121 122
117.000000 566.000000 140.000000 38 40 43
121.000000 563.000000 135.000000 41 45 50
116.000000 564.000000 165.000000 54 55 58
120.000000 567.000000 178.000000 53 53 55
122.000000 568.000000 183.000000 52 54 58
122.000000 573.000000 188.000000 54 55 57
119.000000 517.000000 194.000000 129 123 123
122.000000 525.000000 199.000000 149 143 145
125.000000 545.000000 195.000000 135 128 126
84.000000 596.000000 142.000000 58 59 63
84.000000 601.000000 139.000000 52 56 61
91.000000 599.000000 141.000000 48 49 52
67.000000 630.000000 183.000000 97 94 95
104.000000 583.000000 138.000000 47 42 39
103.000000 603.000000 132.000000 33 33 36
116.000000 590.000000 153.000000 58 55 56
120.000000 589.000000 166.000000 51 48 48
126.000000 639.000000 129.000000 68 69 73
118.000000 635.000000 191.000000 93 88 86
127.000000 626.000000 200.000000 57 56 58
123.000000 636.000000 218.000000 111 105 103
122.000000 637.000000 230.000000 74 68 64
115.000000 636.000000 244.000000 80 75 73
44.000000 703.000000 117.000000 103 99 99
60.000000 687.000000 117.000000 107 102 101
43.000000 719.000000 118.000000 108 96 90
49.000000 715.000000 116.000000 107 101 101
63.000000 705.000000 114.000000 107 102 101
72.000000 672.000000 121.000000 95 92 93
65.000000 689.000000 116.000000 88 81 78
88.000000 689.000000 127.000000 78 77 78
123.000000 648.000000 127.000000 57 59 62
122.000000 681.000000 115.000000 79 76 77
76.000000 740.000000 107.000000 125 121 123
78.000000 762.000000 112.000000 136 131 132
104.000000 729.000000 110.000000 108 101 99
120.000000 709.000000 111.000000 86 84 85
120.000000 716.000000 109.000000 88 85 84
124.000000 759.000000 94.000000 121 116 116
123.000000 767.000000 96.000000 105 100 100
26.000000 659.000000 156.000000 124 118 118
26.000000 672.000000 152.000000 128 120 119
28.000000 685.000000 155.000000 107 100 97
28.000000 693.000000 159.000000 107 99 96
30.000000 675.000000 175.000000 134 126 123
29.000000 686.000000 160.000000 101 95 92
39.000000 646.000000 143.000000 108 104 105
58.000000 640.000000 153.000000 88 87 89
57.000000 661.000000 129.000000 98 93 93
40.000000 641.000000 166.000000 106 100 99
42.000000 685.000000 130.000000 95 90 89
35.000000 684.000000 191.000000 149 142 144
43.000000 658.000000 207.000000 124 118 118
40.000000 671.000000 207.000000 141 135 136
49.000000 692.000000 205.000000 173 167 169
57.000000 702.000000 206.000000 185 178 181
34.000000 714.000000 147.000000 136 128 126
42.000000 725.000000 138.000000 128 121 119
41.000000 729.000000 153.000000 107 102 102
55.000000 729.000000 183.000000 152 143 141
45.000000 738.000000 150.000000 126 119 118
50.000000 749.000000 135.000000 118 111 110
49.000000 747.000000 149.000000 130 122 121
54.000000 752.000000 130.000000 120 112 110
56.000000 758.000000 136.000000 123 117 117
60.000000 760.000000 129.000000 160 151 151
55.000000 765.000000 154.000000 108 96 88
57.000000 752.000000 167.000000 137 124 118
59.000000 765.000000 161.000000 137 129 128
75.000000 642.000000 159.000000 85 84 86
76.000000 653.000000 154.000000 44 47 52
81.000000 671.000000 133.000000 57 56 57
82.000000 666.000000 136.000000 71 70 72
85.000000 669.000000 141.000000 60 60 61
73.000000 642.000000 187.000000 80 75 73
80.000000 676.000000 128.000000 56 56 59
90.000000 673.000000 148.000000 64 63 66
91.000000 692.000000 132.000000 68 67 69
93.000000 689.000000 138.000000 62 61 62
118.000000 647.000000 145.000000 65 64 64
117.000000 643.000000 159.000000 77 76 77
96.000000 661.000000 174.000000 68 66 66
99.000000 671.000000 164.000000 60 59 61
109.000000 662.000000 169.000000 76 73 74
107.000000 668.000000 166.000000 76 73 73
113.000000 647.000000 169.000000 69 67 68
113.000000 644.000000 172.000000 73 71 71
109.000000 682.000000 140.000000 70 68 69
110.000000 687.000000 137.000000 83 80 80
109.000000 696.000000 139.000000 74 71 70
102.000000 678.000000 160.000000 68 66 67
101.000000 673.000000 172.000000 62 60 62
66.000000 645.000000 198.000000 93 86 81
72.000000 645.000000 200.000000 98 92 89
70.000000 650.000000 212.000000 116 106 101
68.000000 655.000000 216.000000 116 103 95
77.000000 647.000000 208.000000 100 93 89
75.000000 651.000000 215.000000 102 94 90
80.000000 647.000000 203.000000 89 83 79
83.000000 670.000000 241.000000 110 98 88
71.000000 687.000000 231.000000 159 129 111
91.000000 703.000000 226.000000 160 129 115
91.000000 703.000000 234.000000 157 124 110
101.000000 657.000000 194.000000 52 51 52
98.000000 660.000000 222.000000 79 73 69
114.000000 642.000000 195.000000 83 77 75
115.000000 648.000000 216.000000 90 84 80
113.000000 659.000000 209.000000 73 69 68
100.000000 662.000000 229.000000 83 76 72
96.000000 662.000000 234.000000 92 85 81
109.000000 663.000000 226.000000 58 56 56
109.000000 668.000000 246.000000 71 67 65
121.000000 641.000000 231.000000 82 74 70
118.000000 650.000000 241.000000 84 75 70
87.000000 712.000000 188.000000 93 80 75
91.000000 714.000000 188.000000 81 71 65
92.000000 718.000000 191.000000 93 80 71
73.000000 741.000000 187.000000 146 135 132
96.000000 719.000000 190.000000 86 77 72
109.000000 724.000000 191.000000 95 84 76
104.000000 739.000000 185.000000 78 70 66
114.000000 754.000000 190.000000 125 115 110
65.000000 710.000000 198.000000 187 179 180
70.000000 709.000000 200.000000 186 178 180
80.000000 708.000000 205.000000 181 173 175
83.000000 704.000000 214.000000 158 124 107
103.000000 706.000000 208.000000 110 100 95
106.000000 716.000000 209.000000 126 115 109
109.000000 725.000000 206.000000 117 106 99
101.000000 705.000000 236.000000 147 119 104
114.000000 707.000000 228.000000 127 115 108
120.000000 710.000000 232.000000 85 75 70
122.000000 729.000000 224.000000 114 103 99
118.000000 743.000000 195.000000 132 122 118
120.000000 750.000000 200.000000 125 116 113
119.000000 759.000000 197.000000 136 126 121
122.000000 760.000000 202.000000 139 129 126
144.000000 523.000000 60.000000 95 90 89
155.000000 522.000000 56.000000 91 87 86
155.000000 538.000000 49.000000 125 114 107
152.000000 542.000000 55.000000 120 110 105
148.000000 569.000000 61.000000 110 102 96
151.000000 573.000000 58.000000 111 102 97
157.000000 566.000000 60.000000 102 94 89
170.000000 522.000000 55.000000 91 86 84
173.000000 522.000000 52.000000 91 86 84
185.000000 515.000000 47.000000 87 82 80
168.000000 544.000000 47.000000 122 112 106
164.000000 549.000000 53.000000 117 107 102
179.000000 557.000000 48.000000 112 103 98
190.000000 572.000000 49.000000 104 97 93
135.000000 525.000000 75.000000 106 96 89
140.000000 516.000000 83.000000 112 103 96
138.000000 524.000000 85.000000 108 99 94
130.000000 543.000000 73.000000 100 94 92
133.000000 533.000000 95.000000 78 74 73
130.000000 559.000000 85.000000 94 86 81
131.000000 569.000000 68.000000 112 103 98
157.000000 579.000000 55.000000 112 103 98
165.000000 577.000000 55.000000 105 97 93
191.000000 582.000000 49.000000 103 96 92
180.000000 593.000000 49.000000 117 107 100
181.000000 615.000000 62.000000 85 77 72
187.000000 629.000000 63.000000 105 97 94
132.000000 590.000000 70.000000 122 112 106
158.000000 605.000000 64.000000 128 116 108
156.000000 606.000000 78.000000 122 110 101
138.000000 603.000000 110.000000 72 65 60
143.000000 607.000000 111.000000 87 82 82
134.000000 608.000000 91.000000 101 90 82
141.000000 610.000000 95.000000 54 53 55
138.000000 635.000000 111.000000 57 58 60
143.000000 634.000000 107.000000 73 71 71
129.000000 639.000000 121.000000 59 60 63
153.000000 625.000000 110.000000 57 57 58
173.000000 614.000000 91.000000 88 80 75
176.000000 609.000000 73.000000 103 94 88
183.000000 621.000000 67.000000 78 70 65
183.000000 622.000000 75.000000 53 51 52
165.000000 612.000000 100.000000 61 58 57
168.000000 612.000000 97.000000 79 73 71
175.000000 622.000000 99.000000 57 56 57
172.000000 625.000000 97.000000 56 56 57
177.000000 632.000000 99.000000 55 53 54
214.000000 518.000000 50.000000 97 89 84
217.000000 525.000000 59.000000 100 89 81
203.000000 558.000000 37.000000 119 110 106
214.000000 569.000000 46.000000 84 73 65
219.000000 530.000000 66.000000 99 89 81
223.000000 538.000000 74.000000 102 92 84
219.000000 567.000000 65.000000 96 88 82
223.000000 562.000000 71.000000 67 65 66
237.000000 530.000000 91.000000 94 82 72
252.000000 540.000000 98.000000 87 77 68
240.000000 546.000000 93.000000 90 78 68
252.000000 568.000000 99.000000 71 71 74
197.000000 595.000000 46.000000 100 92 88
212.000000 578.000000 44.000000 71 64 59
210.000000 596.000000 59.000000 81 72 66
209.000000 603.000000 57.000000 59 54 51
205.000000 614.000000 63.000000 80 72 66
217.000000 586.000000 78.000000 53 54 58
212.000000 600.000000 73.000000 101 91 83
206.000000 611.000000 73.000000 78 72 69
198.000000 629.000000 76.000000 37 40 44
211.000000 621.000000 81.000000 38 40 44
211.000000 625.000000 88.000000 43 44 47
212.000000 637.000000 85.000000 56 54 54
233.000000 598.000000 93.000000 76 70 66
240.000000 585.000000 96.000000 67 63 62
255.000000 620.000000 115.000000 53 52 53
143.000000 527.000000 210.000000 94 83 75
130.000000 542.000000 201.000000 116 107 104
142.000000 539.000000 214.000000 149 143 144
153.000000 523.000000 223.000000 105 95 88
133.000000 561.000000 200.000000 48 49 52
141.000000 565.000000 211.000000 58 58 61
149.000000 569.000000 221.000000 59 60 64
173.000000 522.000000 234.000000 131 125 125
191.000000 514.000000 246.000000 155 150 154
180.000000 537.000000 233.000000 134 129 130
171.000000 567.000000 237.000000 59 60 64
178.000000 544.000000 231.000000 133 126 126
182.000000 574.000000 243.000000 53 55 60
130.000000 625.000000 138.000000 84 82 84
134.000000 611.000000 165.000000 105 100 99
134.000000 610.000000 175.000000 111 105 105
135.000000 615.000000 182.000000 110 105 104
131.000000 621.000000 181.000000 99 94 93
132.000000 584.000000 203.000000 53 54 57
141.000000 585.000000 213.000000 56 57 60
152.000000 617.000000 207.000000 79 75 75
144.000000 620.000000 215.000000 64 62 62
154.000000 611.000000 213.000000 96 89 87
140.000000 618.000000 227.000000 68 67 68
141.000000 616.000000 237.000000 62 60 61
143.000000 617.000000 255.000000 95 91 90
149.000000 616.000000 229.000000 62 61 62
161.000000 598.000000 232.000000 120 114 114
187.000000 588.000000 247.000000 52 53 56
184.000000 593.000000 242.000000 79 76 76
187.000000 597.000000 245.000000 111 105 104
184.000000 602.000000 245.000000 122 116 115
164.000000 608.000000 234.000000 106 100 99
197.000000 549.000000 238.000000 126 121 123
216.000000 553.000000 244.000000 118 114 117
224.000000 528.000000 253.000000 130 126 127
237.000000 538.000000 255.000000 122 113 110
229.000000 553.000000 246.000000 123 119 120
196.000000 599.000000 248.000000 107 102 101
202.000000 613.000000 255.000000 80 77 78
210.000000 611.000000 252.000000 116 113 114
233.000000 589.000000 255.000000 41 44 48
241.000000 606.000000 246.000000 112 106 105
241.000000 600.000000 248.000000 123 117 117
185.000000 670.000000 62.000000 89 84 81
185.000000 686.000000 60.000000 89 86 86
151.000000 669.000000 89.000000 80 75 73
132.000000 662.000000 106.000000 74 72 73
139.000000 665.000000 98.000000 86 79 75
147.000000 646.000000 96.000000 98 94 94
142.000000 680.000000 95.000000 94 88 85
159.000000 679.000000 82.000000 112 107 106
144.000000 699.000000 90.000000 100 96 96
153.000000 697.000000 88.000000 69 64 63
160.000000 645.000000 83.000000 94 89 87
168.000000 643.000000 83.000000 67 65 65
167.000000 664.000000 77.000000 86 78 74
177.000000 653.000000 70.000000 76 73 73
186.000000 646.000000 76.000000 82 78 77
180.000000 668.000000 65.000000 91 87 87
187.000000 657.000000 65.000000 84 80 79
174.000000 640.000000 100.000000 61 60 62
181.000000 690.000000 65.000000 81 75 72
179.000000 694.000000 72.000000 83 76 72
183.000000 726.000000 62.000000 100 94 93
184.000000 742.000000 63.000000 99 94 92
187.000000 746.000000 56.000000 70 65 63
139.000000 708.000000 91.000000 88 81 77
152.000000 706.000000 85.000000 109 104 103
159.000000 705.000000 82.000000 99 95 95
157.000000 728.000000 79.000000 124 118 117
154.000000 734.000000 88.000000 58 57 59
141.000000 737.000000 92.000000 103 98 97
129.000000 753.000000 93.000000 109 103 102
131.000000 757.000000 89.000000 108 103 102
147.000000 766.000000 82.000000 104 100 99
157.000000 753.000000 82.000000 103 99 98
166.000000 720.000000 76.000000 81 74 69
162.000000 731.000000 79.000000 83 75 71
177.000000 725.000000 70.000000 117 111 109
162.000000 737.000000 87.000000 74 71 72
167.000000 767.000000 79.000000 96 91 91
197.000000 655.000000 56.000000 68 64 62
207.000000 647.000000 52.000000 110 103 101
216.000000 652.000000 60.000000 97 89 85
213.000000 658.000000 49.000000 99 91 87
200.000000 675.000000 43.000000 105 97 94
207.000000 699.000000 47.000000 101 93 90
192.000000 699.000000 56.000000 66 63 64
201.000000 644.000000 65.000000 96 90 88
215.000000 648.000000 67.000000 95 88 85
216.000000 655.000000 65.000000 108 100 96
218.000000 652.000000 69.000000 89 84 82
215.000000 641.000000 107.000000 98 92 90
219.000000 673.000000 65.000000 86 81 80
253.000000 665.000000 79.000000 105 98 95
225.000000 640.000000 109.000000 56 55 57
229.000000 646.000000 108.000000 79 76 77
242.000000 646.000000 97.000000 75 73 75
245.000000 641.000000 110.000000 78 75 75
229.000000 675.000000 69.000000 96 91 90
235.000000 675.000000 71.000000 108 104 104
234.000000 700.000000 69.000000 94 88 86
245.000000 687.000000 73.000000 98 91 87
251.000000 692.000000 75.000000 84 77 72
198.000000 715.000000 50.000000 123 117 117
199.000000 730.000000 45.000000 124 119 118
218.000000 704.000000 55.000000 55 50 47
197.000000 755.000000 45.000000 121 117 117
215.000000 737.000000 53.000000 112 104 100
224.000000 714.000000 54.000000 87 83 83
222.000000 736.000000 66.000000 106 100 98
219.000000 758.000000 71.000000 85 79 77
226.000000 713.000000 64.000000 68 64 63
237.000000 707.000000 70.000000 73 66 62
227.000000 733.000000 68.000000 110 105 105
252.000000 714.000000 76.000000 105 98 95
229.000000 750.000000 72.000000 96 85 77
234.000000 746.000000 73.000000 115 109 108
238.000000 757.000000 77.000000 109 102 100
240.000000 743.000000 74.000000 83 74 67
157.000000 730.000000 247.000000 105 96 92
142.000000 766.000000 250.000000 101 101 107
146.000000 755.000000 243.000000 58 55 55
161.000000 737.000000 254.000000 85 82 83
125.000000 654.000000 283.000000 37 39 42
112.000000 669.000000 278.000000 113 108 107
114.000000 668.000000 282.000000 62 59 59
116.000000 665.000000 290.000000 85 77 72
99.000000 681.000000 261.000000 131 113 99
111.000000 685.000000 285.000000 133 126 125
110.000000 689.000000 281.000000 137 133 136
111.000000 699.000000 278.000000 126 118 119
116.000000 690.000000 292.000000 149 142 142
123.000000 712.000000 260.000000 144 118 106
139.000000 567.000000 316.000000 117 118 125
144.000000 570.000000 318.000000 97 101 109
133.000000 586.000000 299.000000 75 77 83
141.000000 587.000000 300.000000 61 61 65
137.000000 588.000000 310.000000 92 95 102
140.000000 596.000000 301.000000 88 89 93
144.000000 586.000000 315.000000 106 108 115
158.000000 593.000000 306.000000 91 89 91
150.000000 622.000000 257.000000 72 67 65
157.000000 621.000000 259.000000 102 96 94
155.000000 633.000000 276.000000 90 84 82
176.000000 593.000000 317.000000 83 81 83
165.000000 617.000000 264.000000 90 85 83
167.000000 624.000000 277.000000 90 85 84
164.000000 639.000000 285.000000 52 51 53
179.000000 611.000000 262.000000 64 61 61
182.000000 613.000000 277.000000 120 117 118
182.000000 620.000000 282.000000 108 103 102
190.000000 613.000000 277.000000 104 101 102
189.000000 622.000000 283.000000 81 77 75
166.000000 608.000000 308.000000 79 78 80
165.000000 639.000000 295.000000 49 49 51
170.000000 630.000000 312.000000 59 60 63
176.000000 635.000000 305.000000 61 62 65
157.000000 588.000000 324.000000 106 107 113
171.000000 592.000000 331.000000 49 54 61
162.000000 639.000000 325.000000 85 81 81
171.000000 625.000000 331.000000 107 105 108
187.000000 628.000000 342.000000 79 80 85
254.000000 512.000000 266.000000 149 143 144
215.000000 558.000000 383.000000 93 94 100
221.000000 571.000000 361.000000 64 63 65
239.000000 549.000000 379.000000 97 98 103
207.000000 589.000000 258.000000 54 56 60
197.000000 611.000000 261.000000 78 75 76
207.000000 612.000000 268.000000 73 72 73
194.000000 618.000000 281.000000 85 80 78
197.000000 622.000000 285.000000 102 98 98
213.000000 613.000000 271.000000 60 60 61
219.000000 616.000000 259.000000 74 73 75
211.000000 613.000000 276.000000 83 81 82
195.000000 628.000000 288.000000 102 97 97
238.000000 622.000000 262.000000 61 60 61
225.000000 615.000000 277.000000 74 73 74
229.000000 618.000000 278.000000 75 72 71
237.000000 629.000000 281.000000 64 59 56
234.000000 632.000000 273.000000 91 87 88
225.000000 620.000000 290.000000 90 86 86
192.000000 606.000000 347.000000 91 92 99
200.000000 601.000000 342.000000 57 58 61
212.000000 597.000000 346.000000 42 44 49
214.000000 602.000000 345.000000 50 49 51
222.000000 600.000000 348.000000 46 46 49
198.000000 606.000000 353.000000 84 86 91
216.000000 578.000000 357.000000 63 62 64
208.000000 587.000000 375.000000 68 68 74
202.000000 619.000000 329.000000 92 89 90
207.000000 616.000000 335.000000 90 88 90
212.000000 637.000000 329.000000 93 93 96
213.000000 625.000000 336.000000 94 96 107
216.000000 610.000000 369.000000 136 134 139
225.000000 577.000000 383.000000 46 46 51
237.000000 578.000000 382.000000 115 112 114
228.000000 594.000000 356.000000 52 54 59
230.000000 597.000000 359.000000 73 73 75
232.000000 595.000000 364.000000 55 57 59
227.000000 615.000000 353.000000 65 64 64
229.000000 635.000000 360.000000 57 59 65
221.000000 524.000000 393.000000 73 75 80
222.000000 532.000000 393.000000 114 111 113
223.000000 533.000000 407.000000 87 89 97
215.000000 566.000000 389.000000 89 91 96
219.000000 564.000000 393.000000 92 93 98
232.000000 523.000000 391.000000 54 56 59
229.000000 524.000000 411.000000 55 57 63
237.000000 512.000000 403.000000 58 61 66
237.000000 527.000000 412.000000 128 126 129
228.000000 537.000000 410.000000 109 111 117
239.000000 536.000000 406.000000 118 120 127
244.000000 528.000000 387.000000 58 58 61
247.000000 541.000000 403.000000 99 99 104
237.000000 544.000000 402.000000 89 91 98
135.000000 646.000000 274.000000 69 67 68
136.000000 643.000000 281.000000 77 74 75
128.000000 664.000000 262.000000 55 54 55
135.000000 660.000000 306.000000 58 61 66
144.000000 642.000000 291.000000 68 67 69
158.000000 648.000000 315.000000 43 44 46
151.000000 668.000000 318.000000 59 60 64
158.000000 664.000000 319.000000 94 86 82
155.000000 703.000000 283.000000 140 133 133
137.000000 673.000000 313.000000 88 89 98
139.000000 682.000000 311.000000 140 124 116
155.000000 697.000000 297.000000 120 109 105
178.000000 641.000000 292.000000 59 58 59
164.000000 694.000000 284.000000 98 94 95
164.000000 672.000000 318.000000 90 84 84
181.000000 700.000000 295.000000 90 91 98
184.000000 703.000000 289.000000 57 56 59
182.000000 699.000000 313.000000 96 97 103
167.000000 648.000000 327.000000 152 149 155
161.000000 658.000000 322.000000 109 99 97
165.000000 666.000000 320.000000 106 99 98
177.000000 651.000000 321.000000 60 62 68
190.000000 671.000000 324.000000 89 86 88
136.000000 715.000000 267.000000 101 90 90
128.000000 709.000000 283.000000 170 167 172
133.000000 707.000000 286.000000 177 174 180
135.000000 714.000000 275.000000 137 132 136
159.000000 740.000000 271.000000 91 93 98
158.000000 757.000000 266.000000 72 73 77
154.000000 764.000000 256.000000 91 93 100
156.000000 765.000000 260.000000 78 79 84
164.000000 705.000000 273.000000 111 103 99
163.000000 732.000000 266.000000 71 66 63
167.000000 735.000000 282.000000 62 62 67
183.000000 705.000000 308.000000 113 113 118
165.000000 740.000000 277.000000 52 54 59
190.000000 738.000000 258.000000 83 78 78
185.000000 744.000000 262.000000 80 74 72
185.000000 747.000000 265.000000 86 81 80
183.000000 753.000000 273.000000 62 64 68
200.000000 641.000000 291.000000 94 87 85
207.000000 643.000000 293.000000 88 81 77
202.000000 648.000000 291.000000 99 92 89
205.000000 647.000000 318.000000 91 88 90
222.000000 650.000000 297.000000 102 96 96
218.000000 661.000000 299.000000 108 102 100
201.000000 682.000000 301.000000 64 60 58
204.000000 701.000000 298.000000 82 81 84
218.000000 685.000000 303.000000 84 78 76
208.000000 673.000000 318.000000 46 45 45
215.000000 700.000000 299.000000 81 80 82
216.000000 693.000000 303.000000 60 59 62
218.000000 701.000000 296.000000 110 103 102
219.000000 698.000000 305.000000 110 99 95
244.000000 661.000000 278.000000 89 84 83
235.000000 647.000000 290.000000 105 96 91
227.000000 656.000000 295.000000 92 86 83
225.000000 685.000000 305.000000 125 115 110
239.000000 689.000000 307.000000 95 83 73
249.000000 699.000000 307.000000 91 80 74
198.000000 650.000000 338.000000 81 81 85
202.000000 665.000000 341.000000 58 60 65
209.000000 643.000000 324.000000 49 49 51
208.000000 640.000000 346.000000 80 79 82
219.000000 641.000000 366.000000 55 59 68
223.000000 644.000000 366.000000 60 61 67
202.000000 679.000000 326.000000 127 125 128
221.000000 674.000000 353.000000 97 102 111
229.000000 654.000000 332.000000 53 54 57
231.000000 643.000000 338.000000 67 66 68
237.000000 646.000000 341.000000 78 76 76
227.000000 654.000000 362.000000 61 62 66
235.000000 648.000000 353.000000 69 74 82
233.000000 654.000000 354.000000 45 48 54
224.000000 662.000000 360.000000 150 148 152
196.000000 718.000000 266.000000 61 57 55
199.000000 723.000000 266.000000 63 60 60
205.000000 734.000000 262.000000 93 87 84
207.000000 731.000000 278.000000 73 68 67
212.000000 726.000000 271.000000 85 81 80
217.000000 732.000000 286.000000 126 118 115
206.000000 716.000000 291.000000 139 131 128
214.000000 706.000000 293.000000 137 129 126
221.000000 715.000000 293.000000 143 134 132
209.000000 729.000000 289.000000 89 83 81
240.000000 711.000000 280.000000 102 95 93
248.000000 709.000000 279.000000 114 106 103
249.000000 722.000000 283.000000 83 74 69
224.000000 738.000000 269.000000 96 84 76
237.000000 751.000000 281.000000 81 72 67
237.000000 766.000000 268.000000 122 111 105
246.000000 741.000000 287.000000 95 84 80
252.000000 738.000000 281.000000 56 53 53
244.000000 752.000000 271.000000 76 67 61
68.000000 772.000000 127.000000 77 70 71
88.000000 768.000000 107.000000 102 96 96
114.000000 776.000000 94.000000 100 94 92
114.000000 784.000000 93.000000 108 104 103
109.000000 788.000000 97.000000 109 105 106
106.000000 811.000000 104.000000 109 103 102
100.000000 817.000000 113.000000 137 130 130
122.000000 828.000000 106.000000 109 98 92
57.000000 770.000000 138.000000 115 111 112
62.000000 782.000000 141.000000 109 97 88
74.000000 796.000000 139.000000 129 124 125
86.000000 814.000000 130.000000 127 120 118
92.000000 827.000000 147.000000 125 110 105
99.000000 789.000000 183.000000 103 96 93
114.000000 779.000000 190.000000 145 135 130
100.000000 831.000000 155.000000 112 94 88
107.000000 803.000000 183.000000 142 132 129
118.000000 808.000000 188.000000 141 132 130
122.000000 788.000000 193.000000 166 157 155
127.000000 797.000000 218.000000 76 75 78
126.000000 769.000000 232.000000 43 44 46
126.000000 781.000000 235.000000 83 85 94
108.000000 838.000000 131.000000 124 112 105
108.000000 840.000000 139.000000 133 122 117
127.000000 846.000000 146.000000 108 96 94
133.000000 798.000000 87.000000 116 111 111
128.000000 813.000000 92.000000 110 100 94
138.000000 803.000000 87.000000 118 113 113
133.000000 818.000000 92.000000 125 119 118
155.000000 802.000000 85.000000 119 113 112
159.000000 819.000000 92.000000 63 63 66
150.000000 830.000000 100.000000 99 92 91
172.000000 791.000000 78.000000 79 76 76
182.000000 789.000000 75.000000 100 95 95
176.000000 798.000000 79.000000 91 88 88
172.000000 815.000000 85.000000 70 68 69
161.000000 831.000000 87.000000 51 52 56
166.000000 827.000000 83.000000 40 43 48
140.000000 844.000000 111.000000 129 117 115
148.000000 868.000000 110.000000 63 63 68
150.000000 878.000000 122.000000 53 57 63
177.000000 851.000000 89.000000 72 72 77
165.000000 858.000000 96.000000 38 41 45
182.000000 851.000000 101.000000 42 42 45
182.000000 854.000000 111.000000 126 116 112
179.000000 857.000000 106.000000 56 52 55
166.000000 871.000000 111.000000 113 104 105
173.000000 867.000000 114.000000 180 171 170
169.000000 870.000000 126.000000 50 51 56
199.000000 802.000000 59.000000 96 87 82
214.000000 772.000000 65.000000 95 87 83
217.000000 795.000000 76.000000 74 69 67
195.000000 808.000000 66.000000 118 100 89
203.000000 826.000000 88.000000 133 117 105
233.000000 779.000000 79.000000 122 115 114
244.000000 774.000000 83.000000 110 104 101
234.000000 825.000000 101.000000 101 90 84
238.000000 824.000000 97.000000 142 131 125
243.000000 824.000000 102.000000 137 126 121
253.000000 821.000000 101.000000 131 117 109
248.000000 824.000000 116.000000 141 128 121
206.000000 849.000000 119.000000 159 149 147
135.000000 824.000000 186.000000 88 77 70
128.000000 793.000000 209.000000 77 71 69
129.000000 792.000000 222.000000 69 67 68
151.000000 774.000000 250.000000 91 93 99
150.000000 781.000000 246.000000 91 92 98
144.000000 788.000000 225.000000 126 116 113
149.000000 788.000000 244.000000 89 90 95
148.000000 793.000000 243.000000 69 71 76
131.000000 802.000000 214.000000 64 64 69
158.000000 805.000000 221.000000 163 154 153
155.000000 827.000000 206.000000 151 141 138
176.000000 784.000000 251.000000 83 79 79
173.000000 800.000000 242.000000 101 97 97
178.000000 800.000000 239.000000 110 104 103
179.000000 814.000000 224.000000 108 98 94
129.000000 841.000000 158.000000 134 123 121
133.000000 852.000000 137.000000 88 77 73
132.000000 856.000000 144.000000 86 82 81
132.000000 844.000000 172.000000 115 107 105
133.000000 840.000000 179.000000 114 105 101
134.000000 853.000000 162.000000 142 130 124
143.000000 866.000000 159.000000 104 95 91
182.000000 863.000000 132.000000 147 135 130
169.000000 863.000000 178.000000 102 87 84
169.000000 856.000000 185.000000 120 108 105
184.000000 875.000000 142.000000 101 91 84
173.000000 873.000000 178.000000 121 109 102
143.000000 840.000000 194.000000 122 109 100
147.000000 849.000000 192.000000 145 130 120
171.000000 841.000000 205.000000 89 79 74
179.000000 836.000000 217.000000 119 107 101
176.000000 856.000000 202.000000 113 101 94
187.000000 859.000000 209.000000 132 101 94
186.000000 834.000000 227.000000 126 113 107
175.000000 864.000000 193.000000 110 98 92
187.000000 867.000000 211.000000 132 107 99
189.000000 882.000000 222.000000 115 102 94
184.000000 893.000000 226.000000 108 99 95
189.000000 894.000000 239.000000 113 99 89
194.000000 768.000000 254.000000 118 109 105
192.000000 773.000000 252.000000 123 112 106
193.000000 777.000000 251.000000 115 105 101
199.000000 822.000000 238.000000 46 43 43
203.000000 819.000000 238.000000 61 56 53
221.000000 828.000000 233.000000 62 57 54
222.000000 821.000000 251.000000 61 58 58
227.000000 812.000000 243.000000 93 84 79
230.000000 809.000000 246.000000 97 90 87
231.000000 820.000000 251.000000 54 52 51
245.000000 808.000000 248.000000 69 65 64
211.000000 856.000000 129.000000 167 156 154
223.000000 856.000000 135.000000 165 157 156
217.000000 860.000000 137.000000 164 155 154
195.000000 882.000000 154.000000 127 116 111
210.000000 872.000000 144.000000 123 114 111
222.000000 889.000000 162.000000 115 89 85
220.000000 894.000000 165.000000 101 81 75
229.000000 850.000000 131.000000 165 157 157
233.000000 855.000000 137.000000 156 149 150
237.000000 859.000000 139.000000 96 91 91
228.000000 866.000000 142.000000 133 123 120
239.000000 876.000000 156.000000 124 118 118
247.000000 867.000000 149.000000 127 115 109
251.000000 877.000000 189.000000 125 94 87
255.000000 880.000000 175.000000 128 110 108
241.000000 892.000000 178.000000 85 66 54
208.000000 846.000000 254.000000 78 70 70
223.000000 862.000000 230.000000 48 44 43
215.000000 853.000000 254.000000 103 92 87
221.000000 859.000000 245.000000 83 76 74
218.000000 864.000000 223.000000 57 52 49
198.000000 874.000000 229.000000 98 86 78
197.000000 876.000000 233.000000 107 94 84
192.000000 880.000000 229.000000 106 95 87
203.000000 889.000000 247.000000 114 99 89
213.000000 873.000000 248.000000 108 100 96
224.000000 852.000000 226.000000 44 38 36
250.000000 875.000000 203.000000 129 100 91
252.000000 870.000000 211.000000 122 97 89
250.000000 880.000000 197.000000 135 107 91
249.000000 893.000000 198.000000 127 104 95
228.000000 888.000000 253.000000 95 81 79
237.000000 887.000000 248.000000 89 78 74
183.000000 901.000000 177.000000 139 115 111
180.000000 899.000000 184.000000 132 104 99
170.000000 958.000000 170.000000 154 142 136
178.000000 943.000000 174.000000 57 56 57
185.000000 944.000000 169.000000 54 55 58
150.000000 943.000000 196.000000 142 132 127
152.000000 959.000000 201.000000 119 111 108
175.000000 918.000000 196.000000 100 94 92
177.000000 904.000000 215.000000 111 101 95
179.000000 912.000000 217.000000 120 93 84
179.000000 926.000000 231.000000 135 96 91
168.000000 950.000000 221.000000 53 48 47
182.000000 936.000000 237.000000 124 102 85
186.000000 985.000000 170.000000 134 127 125
158.000000 969.000000 195.000000 157 145 141
158.000000 972.000000 199.000000 167 154 149
155.000000 972.000000 207.000000 147 137 132
154.000000 962.000000 219.000000 113 101 93
163.000000 971.000000 192.000000 138 130 128
160.000000 982.000000 214.000000 166 152 145
172.000000 996.000000 203.000000 168 157 153
180.000000 1007.000000 220.000000 183 168 162
187.000000 1010.000000 208.000000 183 170 165
190.000000 1012.000000 224.000000 194 180 175
197.000000 919.000000 175.000000 74 69 67
214.000000 900.000000 165.000000 98 81 75
215.000000 910.000000 168.000000 90 77 70
194.000000 952.000000 153.000000 105 99 98
212.000000 949.000000 148.000000 115 107 104
205.000000 933.000000 167.000000 51 51 53
200.000000 945.000000 163.000000 56 57 59
217.000000 932.000000 163.000000 53 52 54
238.000000 925.000000 175.000000 45 42 41
226.000000 941.000000 156.000000 42 43 47
229.000000 956.000000 152.000000 127 118 114
253.000000 939.000000 159.000000 116 108 104
200.000000 898.000000 250.000000 103 92 84
251.000000 914.000000 199.000000 88 75 63
255.000000 930.000000 197.000000 62 52 45
214.000000 960.000000 149.000000 96 88 84
217.000000 969.000000 152.000000 122 114 110
202.000000 983.000000 161.000000 147 137 132
199.000000 1006.000000 171.000000 155 158 168
192.000000 1006.000000 182.000000 106 98 95
213.000000 997.000000 167.000000 163 150 144
222.000000 1006.000000 178.000000 178 163 154
211.000000 1015.000000 186.000000 214 197 189
216.000000 1016.000000 190.000000 137 124 116
242.000000 960.000000 151.000000 133 127 126
229.000000 991.000000 164.000000 162 152 149
244.000000 979.000000 166.000000 140 128 122
253.000000 986.000000 176.000000 142 129 121
237.000000 1001.000000 175.000000 182 168 161
198.000000 1014.000000 192.000000 145 134 129
197.000000 1015.000000 204.000000 186 169 160
204.000000 1019.000000 196.000000 191 185 188
206.000000 1016.000000 219.000000 206 191 185
218.000000 1020.000000 199.000000 130 116 107
209.000000 1021.000000 209.000000 126 116 114
212.000000 1019.000000 214.000000 174 155 146
192.000000 1007.000000 243.000000 184 168 161
207.000000 1014.000000 234.000000 191 178 173
219.000000 1017.000000 226.000000 213 197 189
235.000000 1014.000000 192.000000 201 186 179
255.000000 1004.000000 239.000000 201 183 173
248.000000 1010.000000 231.000000 206 189 179
155.000000 773.000000 257.000000 60 61 66
157.000000 779.000000 263.000000 67 70 76
154.000000 790.000000 259.000000 57 61 71
163.000000 779.000000 269.000000 103 106 114
174.000000 776.000000 270.000000 118 120 128
174.000000 784.000000 262.000000 103 104 111
179.000000 770.000000 259.000000 67 65 66
203.000000 781.000000 261.000000 101 92 87
216.000000 790.000000 260.000000 71 66 65
229.000000 799.000000 256.000000 102 95 92
228.000000 823.000000 284.000000 52 52 53
245.000000 826.000000 259.000000 37 37 38
254.000000 823.000000 265.000000 45 43 44
251.000000 825.000000 262.000000 43 42 44
246.000000 823.000000 272.000000 45 45 47
252.000000 817.000000 283.000000 44 44 47
230.000000 820.000000 291.000000 68 65 66
252.000000 806.000000 316.000000 53 52 56
242.000000 816.000000 304.000000 77 72 70
244.000000 826.000000 311.000000 97 88 86
219.000000 848.000000 281.000000 132 119 114
227.000000 848.000000 284.000000 104 94 95
250.000000 833.000000 311.000000 101 92 90
246.000000 865.000000 269.000000 128 116 110
182.000000 943.000000 272.000000 83 80 80
182.000000 955.000000 279.000000 140 131 128
184.000000 969.000000 272.000000 112 102 96
190.000000 983.000000 271.000000 88 95 107
198.000000 916.000000 259.000000 137 117 106
201.000000 926.000000 262.000000 132 110 101
222.000000 907.000000 261.000000 151 129 118
222.000000 915.000000 263.000000 158 137 128
194.000000 941.000000 270.000000 57 55 56
198.000000 940.000000 276.000000 61 59 59
204.000000 957.000000 287.000000 147 138 135
243.000000 896.000000 260.000000 85 73 65
245.000000 918.000000 262.000000 113 95 82
247.000000 925.000000 257.000000 89 76 68
226.000000 944.000000 295.000000 119 113 113
238.000000 956.000000 304.000000 111 105 108
196.000000 964.000000 282.000000 162 150 144
192.000000 979.000000 275.000000 140 129 123
197.000000 1001.000000 256.000000 183 167 158
244.000000 990.000000 285.000000 139 125 115
247.000000 968.000000 309.000000 178 176 183
248.000000 972.000000 304.000000 148 139 138
248.000000 981.000000 290.000000 135 122 113
287.000000 514.000000 119.000000 140 136 139
256.000000 549.000000 97.000000 117 112 113
258.000000 556.000000 98.000000 113 108 107
274.000000 546.000000 107.000000 104 91 80
273.000000 571.000000 112.000000 109 105 105
290.000000 543.000000 120.000000 99 86 74
291.000000 559.000000 121.000000 119 113 112
259.000000 600.000000 106.000000 81 77 76
277.000000 590.000000 105.000000 47 51 56
280.000000 585.000000 122.000000 86 84 85
278.000000 603.000000 98.000000 88 83 82
265.000000 616.000000 110.000000 59 56 57
259.000000 628.000000 117.000000 56 56 57
266.000000 633.000000 121.000000 58 59 60
276.000000 617.000000 101.000000 82 78 76
287.000000 613.000000 101.000000 103 96 93
297.000000 609.000000 112.000000 104 96 92
297.000000 613.000000 115.000000 101 92 87
296.000000 616.000000 124.000000 82 76 73
301.000000 538.000000 133.000000 99 86 74
311.000000 526.000000 154.000000 111 106 105
316.000000 527.000000 170.000000 92 84 79
318.000000 525.000000 178.000000 116 110 109
311.000000 542.000000 160.000000 95 89 87
309.000000 552.000000 149.000000 94 81 69
311.000000 544.000000 164.000000 71 64 60
312.000000 575.000000 169.000000 91 87 86
318.000000 574.000000 175.000000 43 44 49
268.000000 575.000000 242.000000 53 55 58
277.000000 549.000000 253.000000 109 99 96
281.000000 563.000000 241.000000 157 151 153
317.000000 534.000000 215.000000 128 121 120
298.000000 542.000000 250.000000 154 148 149
319.000000 514.000000 234.000000 130 120 116
307.000000 539.000000 233.000000 139 128 124
300.000000 544.000000 242.000000 152 143 142
293.000000 574.000000 228.000000 142 137 139
303.000000 579.000000 148.000000 81 81 84
314.000000 580.000000 156.000000 86 81 78
318.000000 583.000000 159.000000 86 81 79
292.000000 621.000000 138.000000 64 63 63
302.000000 623.000000 152.000000 71 69 70
305.000000 628.000000 157.000000 58 57 58
313.000000 613.000000 172.000000 60 55 53
316.000000 612.000000 180.000000 98 91 87
319.000000 612.000000 185.000000 88 82 81
312.000000 622.000000 179.000000 86 81 79
318.000000 627.000000 165.000000 73 69 67
268.000000 589.000000 243.000000 50 51 55
271.000000 595.000000 242.000000 53 55 59
280.000000 589.000000 238.000000 56 57 60
287.000000 584.000000 234.000000 50 52 56
283.000000 593.000000 236.000000 53 54 57
285.000000 607.000000 229.000000 123 116 114
287.000000 611.000000 227.000000 117 111 110
272.000000 623.000000 248.000000 87 84 86
301.000000 586.000000 229.000000 47 46 47
296.000000 592.000000 230.000000 49 51 54
301.000000 599.000000 228.000000 79 73 70
309.000000 583.000000 229.000000 93 84 77
313.000000 579.000000 229.000000 106 96 90
302.000000 614.000000 218.000000 95 90 90
301.000000 624.000000 219.000000 111 102 98
308.000000 615.000000 200.000000 105 97 95
304.000000 612.000000 223.000000 75 70 67
318.000000 633.000000 199.000000 111 104 103
306.000000 626.000000 214.000000 80 75 72
298.000000 627.000000 227.000000 103 97 95
290.000000 630.000000 245.000000 100 96 97
320.000000 514.000000 188.000000 120 113 111
330.000000 548.000000 189.000000 96 88 82
332.000000 566.000000 187.000000 63 59 57
328.000000 569.000000 183.000000 80 74 70
322.000000 593.000000 154.000000 66 58 53
324.000000 599.000000 157.000000 81 73 67
327.000000 604.000000 176.000000 80 70 63
345.000000 587.000000 182.000000 83 75 69
330.000000 611.000000 185.000000 92 81 74
358.000000 595.000000 140.000000 65 59 56
367.000000 606.000000 136.000000 113 102 95
357.000000 594.000000 145.000000 63 57 53
355.000000 599.000000 157.000000 70 64 61
366.000000 597.000000 154.000000 94 81 70
368.000000 602.000000 142.000000 99 86 74
354.000000 591.000000 170.000000 57 53 52
358.000000 603.000000 186.000000 110 97 87
364.000000 593.000000 176.000000 102 89 79
364.000000 596.000000 179.000000 103 89 77
364.000000 602.000000 179.000000 106 92 80
360.000000 613.000000 136.000000 89 80 73
357.000000 609.000000 147.000000 79 72 68
362.000000 610.000000 174.000000 127 116 111
332.000000 590.000000 207.000000 104 95 89
257.000000 650.000000 89.000000 87 83 81
258.000000 661.000000 83.000000 98 91 87
276.000000 663.000000 86.000000 96 88 84
279.000000 668.000000 86.000000 96 89 84
285.000000 666.000000 89.000000 84 77 73
259.000000 683.000000 78.000000 100 94 92
270.000000 676.000000 83.000000 101 95 94
259.000000 698.000000 77.000000 109 102 100
281.000000 673.000000 87.000000 105 99 98
285.000000 687.000000 86.000000 108 102 100
289.000000 660.000000 93.000000 98 90 86
296.000000 665.000000 95.000000 103 96 93
299.000000 653.000000 104.000000 102 98 97
303.000000 646.000000 122.000000 89 86 86
305.000000 651.000000 110.000000 91 88 89
313.000000 651.000000 114.000000 87 84 84
295.000000 703.000000 92.000000 100 95 94
297.000000 695.000000 92.000000 93 85 80
300.000000 698.000000 93.000000 95 87 81
310.000000 685.000000 99.000000 116 110 109
260.000000 732.000000 80.000000 98 93 92
268.000000 733.000000 83.000000 100 95 95
275.000000 705.000000 83.000000 88 82 79
265.000000 758.000000 88.000000 99 95 95
298.000000 732.000000 94.000000 99 94 94
319.000000 711.000000 117.000000 59 51 45
305.000000 733.000000 98.000000 108 103 102
310.000000 731.000000 101.000000 111 106 106
294.000000 739.000000 93.000000 115 111 111
317.000000 761.000000 119.000000 98 89 84
323.000000 667.000000 110.000000 101 91 84
323.000000 670.000000 115.000000 77 68 62
323.000000 696.000000 112.000000 113 104 99
322.000000 733.000000 121.000000 102 94 91
293.000000 647.000000 134.000000 96 92 91
293.000000 661.000000 251.000000 118 113 113
297.000000 658.000000 247.000000 98 91 87
305.000000 644.000000 235.000000 115 106 101
302.000000 679.000000 246.000000 111 103 100
318.000000 743.000000 140.000000 77 71 67
313.000000 727.000000 252.000000 42 42 43
313.000000 742.000000 225.000000 56 53 53
310.000000 738.000000 242.000000 57 56 56
311.000000 743.000000 246.000000 63 61 61
318.000000 745.000000 245.000000 72 70 70
327.000000 654.000000 131.000000 119 111 107
328.000000 646.000000 137.000000 121 113 110
328.000000 654.000000 139.000000 102 90 81
327.000000 659.000000 138.000000 114 106 103
328.000000 657.000000 147.000000 96 85 77
329.000000 669.000000 149.000000 113 105 101
330.000000 655.000000 162.000000 134 125 121
330.000000 652.000000 167.000000 124 114 109
327.000000 640.000000 178.000000 113 106 103
326.000000 644.000000 187.000000 115 107 103
330.000000 671.000000 163.000000 126 118 114
326.000000 685.000000 135.000000 92 80 69
327.000000 691.000000 147.000000 93 81 71
330.000000 689.000000 154.000000 109 100 94
330.000000 701.000000 150.000000 116 107 103
331.000000 699.000000 157.000000 90 81 73
333.000000 684.000000 167.000000 96 84 74
331.000000 674.000000 182.000000 110 100 93
330.000000 686.000000 188.000000 113 105 101
332.000000 692.000000 171.000000 139 131 129
332.000000 697.000000 166.000000 118 111 109
324.000000 660.000000 197.000000 113 106 102
321.000000 656.000000 205.000000 112 104 101
326.000000 665.000000 195.000000 122 113 109
326.000000 668.000000 198.000000 122 114 112
326.000000 679.000000 203.000000 120 113 110
327.000000 682.000000 200.000000 109 96 86
329.000000 679.000000 195.000000 144 135 133
323.000000 675.000000 209.000000 100 88 79
321.000000 678.000000 214.000000 112 101 94
329.000000 707.000000 144.000000 97 87 80
327.000000 729.000000 133.000000 101 89 80
327.000000 734.000000 138.000000 130 118 111
330.000000 726.000000 138.000000 78 69 64
332.000000 727.000000 149.000000 117 107 102
329.000000 730.000000 157.000000 89 82 78
334.000000 705.000000 175.000000 119 108 101
334.000000 712.000000 164.000000 102 93 88
335.000000 712.000000 173.000000 118 111 108
333.000000 704.000000 184.000000 104 91 81
332.000000 708.000000 190.000000 106 93 83
333.000000 712.000000 189.000000 106 93 87
328.000000 730.000000 165.000000 119 111 107
330.000000 733.000000 170.000000 107 101 98
331.000000 726.000000 183.000000 76 71 70
322.000000 760.000000 144.000000 113 105 101
326.000000 760.000000 151.000000 117 109 106
330.000000 744.000000 165.000000 126 118 115
332.000000 737.000000 177.000000 116 109 106
334.000000 739.000000 182.000000 96 90 88
336.000000 762.000000 186.000000 108 98 93
331.000000 715.000000 199.000000 123 115 111
329.000000 716.000000 207.000000 108 100 97
325.000000 707.000000 214.000000 98 89 83
321.000000 708.000000 223.000000 100 95 95
331.000000 722.000000 202.000000 80 76 75
331.000000 723.000000 226.000000 101 91 85
328.000000 727.000000 238.000000 103 95 92
330.000000 745.000000 204.000000 110 99 93
322.000000 740.000000 214.000000 86 80 77
329.000000 750.000000 208.000000 105 97 93
341.000000 747.000000 192.000000 110 101 95
345.000000 767.000000 218.000000 71 65 62
320.000000 746.000000 225.000000 55 54 54
324.000000 748.000000 228.000000 56 54 54
261.000000 532.000000 261.000000 128 115 110
272.000000 520.000000 267.000000 157 152 154
278.000000 546.000000 257.000000 148 143 144
283.000000 544.000000 256.000000 162 157 160
297.000000 513.000000 263.000000 165 157 158
260.000000 623.000000 257.000000 76 74 76
277.000000 632.000000 258.000000 106 99 97
267.000000 681.000000 269.000000 98 92 90
258.000000 675.000000 277.000000 89 83 81
278.000000 701.000000 270.000000 69 64 62
259.000000 684.000000 305.000000 89 84 81
260.000000 690.000000 291.000000 80 78 78
260.000000 695.000000 288.000000 109 105 105
262.000000 703.000000 290.000000 106 99 96
267.000000 688.000000 294.000000 92 88 88
268.000000 689.000000 290.000000 80 77 78
258.000000 701.000000 308.000000 104 94 89
272.000000 688.000000 297.000000 90 86 86
285.000000 696.000000 310.000000 100 93 90
293.000000 684.000000 257.000000 93 88 87
288.000000 696.000000 286.000000 87 82 80
