ply
format ascii 1.0
element vertex 1085
property float x
property float y
property float z
property uchar red
property uchar green
property uchar blue
end_header
260.835510 810.716614 102.754173 103 98 98
315.025177 839.552856 253.258102 120 103 93
319.495453 817.052979 162.123505 81 73 70
326.369019 831.966309 192.730240 160 147 142
277.012421 961.759888 189.212845 98 91 89
203.851303 20.025990 129.688141 61 56 53
143.719528 12.379094 214.877380 91 81 74
319.155090 21.714283 308.839355 92 84 80
79.003998 711.364807 193.049927 109 95 86
154.735184 602.141785 66.659523 128 115 107
274.314056 852.707458 233.643463 147 138 135
192.509140 2.185256 110.953445 73 68 66
177.536896 13.697813 180.575867 121 111 106
225.929596 105.866066 143.063354 80 76 75
184.554825 348.100983 93.284714 107 103 103
219.204971 382.638031 241.336121 115 111 113
226.863678 383.513092 232.469757 87 83 83
376.032501 28.572357 227.383347 108 98 92
355.465302 251.805771 243.578995 89 79 73
222.726196 573.824036 84.078392 99 89 82
207.617950 616.087891 63.254673 61 55 50
153.164566 601.620667 213.319077 97 90 88
220.872559 682.606628 59.921288 95 88 85
241.521561 703.212158 67.093689 70 64 62
191.424362 598.108337 337.240845 60 60 63
175.483261 691.693909 305.707855 93 92 95
208.919479 690.924072 304.135712 53 54 57
196.356247 804.578308 69.526337 97 84 77
301.949341 854.702148 202.606506 102 96 94
263.462677 935.367981 235.185852 100 86 75
268.226349 778.619446 337.864990 151 134 123
258.931702 969.635437 281.587402 172 157 148
222.294739 52.325554 72.495850 98 92 90
223.470551 251.930649 102.124184 128 122 121
162.869888 145.647278 124.939316 116 112 113
229.326569 182.119781 156.007278 120 113 112
196.947708 195.590103 154.115448 102 98 98
204.965942 233.693253 179.965820 98 94 95
156.041916 379.359955 206.477890 137 131 132
249.617645 427.846436 160.738937 86 82 82
246.852371 389.481842 291.667938 118 111 110
341.713196 90.734123 210.553635 89 87 88
326.875092 121.691673 284.400848 66 60 57
301.236145 162.138535 278.676575 144 137 137
320.804443 364.299194 208.450470 102 98 98
282.295593 398.779083 302.377869 171 165 168
311.576965 391.497864 304.233734 142 130 124
72.127052 627.305481 178.331650 103 100 101
29.554630 701.691772 148.836884 100 94 92
136.518158 521.633484 66.450104 109 102 100
144.778168 631.845337 103.050354 78 76 76
211.336914 675.167664 51.516846 99 92 88
240.088776 643.188538 103.907928 63 62 64
165.272293 740.725586 272.516693 55 57 61
153.507965 858.317322 183.819824 163 150 143
253.646378 926.986694 188.493027 108 82 74
245.873199 899.855713 254.255569 117 98 89
241.129044 1009.842102 236.035675 217 201 193
178.000443 773.769104 266.207153 84 84 88
224.226456 924.208862 269.157990 65 60 66
273.077911 529.809937 108.514435 96 86 77
276.372620 537.992371 109.453018 109 95 83
310.536316 545.703613 159.303055 77 67 58
333.685089 678.772461 158.125534 97 88 83
340.947937 728.495361 212.061584 126 112 101
327.420654 711.902039 247.245026 105 96 90
299.175293 525.432373 255.460678 162 153 153
292.776337 799.296143 109.197815 131 124 122
313.446472 844.175659 165.597015 136 128 128
320.432465 793.151367 143.674011 93 85 81
350.102356 819.771606 222.946915 115 103 97
320.292236 792.436523 326.894073 194 182 180
254.080261 932.586121 271.368835 60 59 59
198.745087 128.965622 144.740097 103 97 95
247.664047 451.105591 276.990143 134 123 118
372.118927 24.937588 210.511444 112 100 93
345.547180 52.516926 311.007538 159 144 136
300.419800 354.755219 307.938782 103 89 77
200.626297 948.092773 149.896332 97 89 84
286.399017 555.074402 247.981049 149 141 140
280.393311 728.988220 271.011841 35 37 40
236.754913 211.489487 110.687752 79 72 68
149.920013 242.912262 159.995300 117 113 114
138.338303 350.584473 192.448898 81 71 63
228.936066 487.021759 89.077507 110 103 101
217.480499 375.458191 272.215302 131 125 125
245.764633 491.272552 417.084747 114 112 115
368.508606 8.339750 238.089157 125 117 114
324.155243 106.433800 212.659790 94 90 90
354.748383 230.469589 239.225159 143 137 137
281.272186 180.514328 259.303406 114 109 109
345.010406 131.992706 291.039063 121 115 114
312.255829 505.609314 177.413651 90 82 77
266.734314 282.987152 311.352844 104 96 91
293.251312 438.063721 297.641998 119 106 98
89.730911 581.322021 120.879875 48 52 57
105.549080 610.271240 123.781929 48 51 56
122.359116 536.888855 186.977982 140 135 136
62.504452 743.724731 183.697876 156 145 142
101.888092 716.488953 196.628281 121 109 104
177.800034 563.455383 230.580475 103 99 99
177.778442 616.915527 238.228088 60 59 61
118.430893 662.230225 282.392517 79 74 72
231.892288 585.894409 354.978912 83 83 88
169.297287 708.326721 278.362701 119 109 104
134.480469 847.304443 141.372574 74 69 68
339.223602 571.145996 198.576233 108 99 93
310.970032 848.599548 216.588104 135 125 121
322.283691 793.226379 315.793488 191 178 176
333.762146 820.244812 257.483337 158 143 134
236.100433 158.014786 91.211983 109 104 102
228.633957 374.515106 171.384827 84 82 83
201.392807 402.240540 249.251343 114 111 112
356.899994 101.195984 269.401855 115 107 104
384.865173 27.302620 329.925995 114 105 101
308.395386 457.388855 166.818832 119 114 115
107.775917 551.685913 121.264442 86 81 80
123.273743 649.673645 231.082123 93 85 80
154.751190 614.789368 236.713577 56 55 55
199.253891 660.315796 43.845333 64 59 56
217.274048 560.135864 365.922852 64 63 65
69.112923 780.533203 125.527908 116 110 109
107.251778 829.694214 136.605530 110 99 95
287.098999 696.568115 84.513092 121 115 114
292.977966 734.660767 358.589447 110 94 87
218.066269 147.469666 70.619507 116 113 115
114.914772 452.667114 189.925095 102 93 88
228.168594 379.041351 144.056808 104 96 91
242.611465 477.362823 103.813889 137 133 136
165.574585 390.890198 205.763565 80 76 76
210.699219 418.926575 227.017197 83 80 80
358.138000 10.160270 258.080048 59 56 55
366.893219 171.148849 226.415344 113 107 107
338.522003 210.048325 218.684662 109 105 105
347.182251 198.960846 219.771652 88 79 73
309.632355 101.681938 268.007141 103 98 98
272.885681 317.027405 214.634476 97 95 98
96.086243 705.255005 245.968567 164 137 123
180.947830 592.459778 45.446056 113 103 97
242.856750 566.020996 90.402512 122 116 116
177.967514 637.892700 286.108459 72 69 68
236.894165 623.694397 252.091400 85 83 84
197.770889 663.353394 336.746063 94 94 98
152.227264 827.992126 95.555519 96 91 91
133.445526 820.507202 179.098160 124 116 114
157.350830 866.804565 175.973724 134 120 113
233.278839 822.378601 283.703705 70 68 69
183.135208 956.051819 274.290588 123 113 109
211.351364 938.637329 292.691376 143 134 130
313.335846 557.844421 168.865250 97 92 90
332.885468 606.399292 221.699036 110 98 90
340.570190 760.386292 371.106018 121 109 103
313.604889 831.876404 156.017227 149 138 134
282.465485 963.039795 261.265747 153 140 131
290.512054 792.609863 350.755890 181 154 138
168.483109 63.309891 115.337967 100 95 94
216.967865 58.542278 58.038967 93 87 85
189.620239 88.672585 72.667755 110 105 106
232.121857 150.679993 111.301491 103 97 94
211.372055 151.401367 166.159790 113 107 106
117.282547 389.811218 149.845062 89 86 87
163.946518 269.102905 95.380005 114 108 106
208.986252 282.664825 176.512161 73 63 54
207.397736 287.662201 181.739151 73 69 67
170.601120 470.239655 87.190437 105 102 103
203.984512 476.337128 88.231018 110 105 104
194.170929 389.219055 200.514999 78 74 72
246.092773 309.553131 265.630341 80 71 63
376.678314 178.645645 246.483292 127 122 123
378.187347 16.613476 338.424957 120 110 106
267.564728 219.669220 270.354095 111 108 110
355.703339 171.753357 281.150330 118 108 104
297.140686 405.016876 303.606323 136 125 121
276.767365 501.879852 267.687317 164 159 162
104.338264 583.552612 106.427193 44 46 49
106.062187 614.663513 87.357430 59 62 67
122.619354 563.299316 140.783905 54 53 55
127.921280 634.121033 160.144089 58 57 57
95.432617 691.934021 131.082138 59 57 58
167.540283 634.311951 103.952751 54 54 56
139.594681 623.333191 261.720062 79 75 74
221.800949 729.006897 281.345367 123 115 113
310.413544 612.459351 171.457214 62 57 56
307.394043 615.226624 202.151108 103 96 94
318.513672 676.422852 109.477982 103 97 96
320.692169 712.679504 122.414314 82 70 61
274.528107 685.261780 299.099365 91 88 89
296.564087 729.065796 367.720062 118 116 118
173.770691 6.469055 98.788292 83 78 76
185.203079 63.515144 76.999817 76 73 72
240.943100 87.995041 118.338959 88 84 82
193.720749 16.856306 173.714478 120 111 107
174.448212 102.963470 139.366440 117 109 107
162.968079 230.462112 102.095222 102 99 101
233.509003 133.351715 119.397614 81 72 66
126.657585 405.688904 106.753555 105 101 101
116.969330 495.754730 117.152664 133 129 131
159.009872 330.642975 115.630798 95 91 91
232.830261 338.170227 115.219284 111 104 102
140.318085 282.811340 164.464813 125 120 121
195.640472 404.421417 81.186577 121 115 114
145.041977 390.669830 204.852264 128 123 124
245.722534 317.360626 283.850464 99 85 73
374.584473 69.896942 224.061005 80 75 73
265.886292 196.088867 262.088684 106 99 97
283.599976 168.930023 263.033813 108 101 100
307.246582 141.456985 281.014435 104 99 99
298.087799 272.165131 217.203934 106 102 102
277.431335 370.185333 178.778992 108 104 104
258.692078 351.521240 203.415359 77 77 79
325.498169 378.762054 285.166718 135 127 126
308.578888 414.645203 286.636597 158 148 145
85.894279 605.649841 123.145515 51 55 61
48.910725 642.068726 189.120056 129 125 126
123.521988 554.764771 182.028397 119 113 114
33.055031 640.300171 158.011215 116 111 111
105.922882 660.237427 183.847046 76 73 73
134.458420 516.287659 103.750175 82 80 81
125.035645 688.602356 106.124992 107 103 103
140.080902 745.427002 228.736084 127 117 112
220.234528 616.257507 339.681488 52 50 58
240.175659 550.291443 385.456024 55 56 60
217.472549 655.449036 296.913116 100 94 93
244.632599 678.588562 286.775177 64 61 62
142.395615 788.711182 83.697647 116 111 111
130.063995 802.352295 212.338470 89 83 84
255.193298 804.302673 242.314209 126 118 117
239.842880 1008.610779 182.084595 178 169 168
282.619263 623.369690 100.073540 91 86 84
307.378296 513.241150 166.660324 115 109 107
318.979553 528.351074 183.556351 116 112 113
284.587158 741.121338 91.496216 97 90 87
304.749817 645.734924 133.982727 48 48 50
309.892517 732.200500 305.757568 102 97 95
306.964417 736.883911 330.735077 87 83 82
353.159119 725.957092 309.348297 108 103 102
263.177948 821.491089 242.354492 104 97 95
330.729004 838.057617 225.009476 149 137 131
285.089111 938.099548 220.443695 94 89 87
293.404510 789.840149 283.449982 111 106 106
294.915497 809.816895 300.905304 99 82 72
291.283020 820.533752 305.560608 57 60 66
273.280457 968.224121 264.038177 162 147 138
171.241013 93.139969 104.073257 64 60 58
230.562927 234.707443 121.523476 105 99 97
230.788101 417.876831 143.811340 92 88 87
249.526276 387.350494 298.297729 130 122 120
335.380035 21.510227 254.557861 88 80 75
361.942535 151.443298 214.576614 82 74 69
374.064850 5.167527 257.753418 126 117 113
317.853027 202.000656 285.683258 117 114 116
285.784210 283.081665 221.936951 80 78 78
292.068756 263.868805 327.965881 113 105 102
87.516701 584.444946 130.479828 61 64 69
57.378098 643.049500 150.071152 75 73 74
28.418818 668.928284 193.398254 136 130 130
102.125862 668.102112 165.355331 73 69 68
68.818512 670.206726 229.734009 121 106 94
227.132675 639.747009 103.148956 84 81 80
163.779495 595.403442 329.075806 104 106 112
90.016365 779.248779 106.908157 115 110 109
140.797852 855.095337 162.094009 173 161 157
200.014938 943.138733 281.882965 80 76 74
210.668930 997.043579 271.512085 193 177 169
364.190399 588.624756 134.647720 84 76 71
301.444916 739.981140 103.357079 113 107 106
322.958557 702.388855 107.009605 121 113 109
297.825867 868.362488 213.725555 139 125 117
165.982224 38.206856 105.019028 106 98 94
148.518616 360.135223 108.879562 110 108 110
174.576584 336.825684 97.403290 99 95 95
146.854065 271.796570 186.189621 107 100 97
212.980789 333.825928 175.066071 55 53 53
160.572830 498.996918 87.693428 130 122 118
147.428940 489.938416 97.681129 98 95 96
146.750092 481.567139 102.367790 109 106 108
186.442856 494.003082 66.255844 112 105 101
251.937988 343.265533 294.585327 78 68 60
318.926270 94.263206 210.774368 83 80 81
284.284912 188.976517 271.951233 97 92 91
320.844696 244.572708 302.779938 119 113 113
266.836884 373.248535 189.885040 83 82 83
330.107269 371.941803 225.549591 133 127 127
298.213867 441.556427 163.532944 89 83 81
111.471466 536.949768 170.553024 139 135 136
58.267002 667.609985 118.595398 94 90 88
64.927330 760.262573 121.795509 160 152 152
58.686295 713.966919 183.350906 105 93 87
54.750004 751.214539 166.895004 126 114 109
87.651955 663.701843 227.542282 89 82 77
216.986496 603.549438 246.453888 116 110 110
192.933884 642.145691 76.202957 56 55 56
185.077698 664.501282 315.606567 112 110 113
77.439323 794.294189 155.540985 134 125 125
158.225616 867.447327 96.704918 190 179 176
150.462051 817.929138 208.136154 127 117 113
130.545929 827.849976 177.694794 112 102 97
227.287186 865.902466 151.760849 127 116 112
173.411621 999.864563 222.093323 176 162 155
213.087509 921.845337 169.916733 56 54 54
232.320389 959.158386 145.495239 104 98 95
275.624054 562.398193 117.024704 111 108 109
283.058502 645.393799 110.362183 76 72 71
297.152252 704.601563 91.849243 104 99 98
325.963409 695.635742 145.038040 79 73 69
277.178192 854.898987 250.322678 131 120 116
329.827545 839.623596 221.649826 135 122 115
283.386658 950.189087 222.340347 109 101 97
286.396484 964.314087 193.988724 117 110 107
275.914154 973.973083 208.418274 100 88 77
302.038574 815.910339 269.619873 95 84 76
301.170837 800.765686 289.129517 102 95 93
267.543945 846.479980 271.674683 101 90 85
363.093506 771.507324 351.366150 151 136 127
269.793640 950.436401 267.778809 137 129 126
211.791702 9.480285 86.052521 65 62 60
220.731033 119.843529 68.797813 120 115 116
175.538574 28.354164 188.042267 145 132 124
197.284470 33.150826 159.285553 112 103 99
211.077560 104.883797 167.966156 79 76 75
235.798355 207.771729 129.630569 89 80 75
111.629967 353.310272 170.139053 122 116 114
193.015884 357.377655 104.636322 94 89 87
200.591217 306.385681 93.097122 118 114 116
180.215302 473.952820 85.677818 78 73 72
232.736465 438.146454 128.902649 68 65 64
222.449463 408.489838 204.630020 67 63 63
232.007584 327.613220 274.192291 95 81 69
202.637360 432.335449 259.625946 136 132 133
336.382843 16.698212 212.939407 99 90 84
340.812164 13.228426 238.640396 91 83 80
355.328979 57.688953 202.601303 81 77 77
267.744324 166.405212 244.038635 95 89 87
350.719299 236.555908 231.652283 117 112 112
330.623566 59.161324 288.106995 131 121 116
379.891357 21.365641 285.718903 122 113 108
375.511902 32.348789 325.244110 171 156 148
294.892853 138.439087 262.870911 78 74 74
347.485687 226.709061 263.573608 101 89 82
389.222321 17.990879 309.699219 118 109 104
297.671265 301.980072 223.424881 63 62 63
309.518860 344.240295 207.829025 123 117 116
336.221161 394.164581 251.675095 120 114 113
334.938293 384.035950 253.609589 148 141 141
41.410622 691.612488 122.170212 90 87 87
87.991211 745.816162 190.807648 94 84 77
187.044281 611.752380 88.535950 59 56 56
206.204697 632.417175 76.252151 39 40 44
211.733475 630.212280 90.698143 51 49 50
154.877701 694.527710 88.888535 69 63 60
161.270584 702.747986 83.022179 98 93 93
247.551910 547.981750 259.395142 115 110 111
199.678650 619.989319 331.110229 90 88 89
171.844040 746.385498 281.230316 95 98 105
184.257736 832.033325 222.758728 120 109 103
254.924561 951.784302 155.459213 115 105 100
220.095673 1000.499268 166.171051 174 161 156
208.817795 1001.629333 256.416901 196 180 173
234.278961 945.037354 292.520447 127 118 113
294.525360 573.454285 124.751930 93 91 93
291.211700 595.259827 105.080078 103 96 94
299.472229 571.010559 129.556870 99 93 90
303.322388 763.431152 97.323639 87 79 73
321.002686 742.308350 228.506622 59 57 57
274.843445 706.735291 279.037811 72 68 68
302.108521 706.960022 281.831848 61 57 55
298.880920 725.111267 349.633789 98 94 93
324.906464 770.783691 131.457611 90 84 81
271.946777 990.927063 207.138336 125 111 101
256.235199 793.847595 312.483704 40 41 44
284.689148 805.231140 304.958069 61 55 56
175.716385 101.229019 85.082275 93 90 92
191.887115 348.286804 191.572205 71 68 67
142.628479 464.434113 211.256882 115 104 97
332.577850 25.035019 227.613327 85 77 73
369.163177 66.272461 216.095673 97 90 85
348.826782 8.242466 305.548340 89 82 79
340.830170 415.060333 237.275681 155 147 146
335.177612 456.496002 238.622147 74 68 65
337.998230 323.590912 275.905090 142 137 137
218.683472 538.644470 395.887848 85 85 89
169.070892 994.040955 202.146515 171 160 155
139.240921 27.060644 152.286621 138 129 125
256.225677 230.624542 269.945587 105 97 93
185.559708 266.892609 83.626099 116 109 105
124.915100 302.830475 135.306824 84 75 69
136.838287 302.592438 125.713699 85 77 72
237.468964 418.024078 281.532349 102 98 99
322.895905 68.912018 225.355621 91 88 88
369.935486 49.088116 301.371887 132 120 114
45.220901 723.232361 123.779625 127 117 114
181.770966 544.445190 35.080967 104 97 93
142.844620 613.349182 197.721405 109 104 103
151.593628 761.368408 77.575996 111 106 106
178.473618 728.691040 293.433594 89 86 88
220.762146 656.885620 322.242371 45 44 45
348.783875 768.042175 237.090317 91 85 81
290.395172 697.114197 282.520325 82 76 74
373.294067 743.119385 298.165710 120 112 109
282.477417 848.887878 147.498703 154 141 134
298.521606 808.428833 324.205963 190 156 140
212.411331 45.069969 58.058907 74 71 71
230.228180 22.320984 63.572807 90 83 79
214.003326 4.881297 111.459198 65 61 59
228.541229 9.194771 92.767044 76 70 67
134.136917 9.976658 179.600159 73 68 66
182.011993 130.670364 77.188049 90 87 88
158.461060 256.170990 102.505890 128 126 128
233.650314 157.058411 123.488998 107 101 99
197.088043 244.745026 185.683411 86 80 78
216.776703 275.055298 95.194313 136 130 129
182.274673 378.722168 199.658600 78 74 74
236.825241 374.999603 225.212189 77 75 74
144.687668 506.466248 86.544914 102 93 87
224.160126 461.661011 105.223991 81 75 72
132.450027 435.128296 203.454269 145 139 140
190.773834 449.040222 220.822571 89 87 90
249.095505 420.673462 158.766922 67 65 66
208.911316 428.332184 209.157120 103 100 102
193.579468 501.968170 246.355118 136 131 133
213.667679 496.664032 257.985291 144 135 133
337.640564 78.534813 207.483871 89 86 86
346.242188 118.772964 209.459686 85 81 80
369.699677 111.671875 235.639008 112 103 98
316.985504 246.426743 214.205093 111 107 107
280.965149 218.794846 293.126709 105 101 101
388.771912 12.182943 316.680603 117 108 104
302.945831 291.440308 232.304382 63 60 59
322.454315 278.636627 302.195618 126 120 119
331.746338 301.783966 273.761200 120 114 113
250.442764 406.874573 302.912476 136 127 124
258.734497 479.113708 274.648926 137 125 119
280.534271 484.814789 273.911285 158 152 154
322.315948 471.843384 265.545044 122 110 105
94.053299 567.877319 120.344818 87 82 79
105.213074 744.536865 181.497253 104 96 93
165.968460 532.331604 49.498074 126 115 109
162.637497 604.551575 55.394157 127 116 108
147.725510 611.793396 95.938354 117 104 96
232.892670 677.336243 74.279190 102 97 96
210.205551 709.364319 48.682636 82 76 73
158.170410 725.364563 252.985046 106 98 95
213.120392 575.826050 369.466339 45 48 53
210.692337 661.153381 338.897339 89 91 97
242.634018 667.446350 346.775604 128 130 137
180.647888 830.085693 74.804634 51 51 55
146.819229 779.818237 238.093231 90 92 98
191.062851 895.764099 166.186783 114 86 85
209.576431 853.651489 261.582245 106 94 88
171.338089 974.149658 258.825134 90 92 111
265.482910 585.779602 246.620895 53 54 58
297.203003 629.770386 229.911301 90 83 81
266.852478 656.882263 81.393806 104 97 93
320.991913 734.799927 137.862411 110 100 95
327.429565 733.422607 280.567780 100 96 95
352.046997 808.125793 216.114792 130 122 121
269.121735 964.764221 307.673584 217 218 229
184.943680 43.554592 160.954224 117 105 96
196.611176 21.739058 144.314026 88 81 78
114.413162 420.355133 124.632889 94 86 82
111.417336 479.416412 167.825684 116 107 104
116.982422 474.142334 133.378052 134 130 132
197.664230 415.505554 84.202682 127 124 125
248.639236 285.759186 286.259796 111 105 104
373.970490 18.093166 227.501572 126 118 115
373.421387 15.207466 325.030975 109 100 95
313.807495 378.341339 192.279312 125 120 120
304.806061 421.304474 174.798721 97 91 89
263.333160 265.940247 301.484802 100 92 88
290.356049 347.501099 309.206970 103 88 75
114.720810 632.355225 92.978706 61 65 73
112.214890 537.227966 148.060364 116 111 112
206.489838 535.745361 48.009285 92 86 84
148.201538 557.047607 210.054413 61 59 59
211.558838 545.219177 243.691528 128 125 128
153.983658 641.086121 274.466888 81 77 77
163.900558 768.364807 272.293365 79 81 88
217.560425 699.806519 297.607605 95 88 85
231.557343 759.230042 276.808441 102 90 82
100.285378 790.167358 102.615158 115 110 111
188.684296 768.983887 48.435230 101 92 88
191.195709 832.501282 229.666977 86 74 66
196.974930 1010.790161 223.713730 187 172 166
298.348236 582.731323 225.040314 99 92 88
326.055450 615.004761 192.490616 38 38 39
278.667297 691.863037 267.678406 58 56 56
264.317017 685.596863 313.993164 95 86 82
265.683350 825.772766 116.523972 112 106 105
322.378601 821.080505 133.069016 135 126 125
293.890381 850.058716 150.813675 157 147 143
339.362091 786.459961 186.675797 90 83 79
214.262192 87.094406 146.128815 61 57 57
158.432190 329.239014 191.047028 81 71 63
141.742233 756.513916 246.426895 114 116 123
108.656334 771.269958 190.274567 134 124 120
197.578690 856.848511 121.543434 173 162 159
304.930115 698.410583 245.577271 95 91 90
257.323090 638.952942 271.937134 111 104 102
190.458633 226.903671 178.299713 79 75 74
138.505356 368.162109 129.502014 102 99 99
221.329300 424.687408 201.829468 82 81 84
362.113129 132.825104 271.570679 112 107 106
265.209717 344.822510 205.217773 69 67 68
138.896545 645.570801 101.920624 74 71 72
249.297379 662.217957 72.068481 98 91 87
124.415703 678.742920 305.110596 115 104 99
255.094604 741.476807 276.831024 58 56 55
186.130493 879.399536 154.588730 124 114 110
155.564011 975.216858 213.960388 123 116 114
176.627319 977.221313 268.598297 80 75 78
136.706650 23.476395 134.342026 90 84 82
174.042206 247.042603 90.721634 110 106 106
193.615952 147.764954 141.699127 94 88 86
237.707993 199.591995 137.851822 82 77 75
107.004440 388.771515 172.868011 133 128 129
142.975372 324.315063 120.748337 117 111 110
136.026779 306.220367 154.294434 109 103 102
168.950394 452.189056 90.204376 115 111 111
225.442215 445.032898 117.324821 93 90 90
160.250610 418.674561 211.787552 123 119 121
241.826767 396.662994 289.791840 121 114 112
334.123932 67.633377 204.543274 63 59 56
363.110535 120.851402 218.940277 112 107 106
280.052032 131.375061 243.696213 80 75 73
346.579346 162.829086 218.436844 72 66 64
323.424774 82.095192 281.568573 90 78 70
366.882080 194.982819 261.006989 113 102 94
264.416748 279.130524 242.913742 94 90 90
287.577820 370.800812 307.938660 143 135 133
328.965302 342.887360 296.125763 108 92 78
308.914032 436.072510 286.635590 156 149 150
90.243385 708.745972 113.012115 95 91 91
136.196869 538.579041 74.406570 101 94 92
243.223068 520.986145 92.489433 123 117 117
157.738297 711.889954 77.568352 93 86 84
217.816559 723.492004 49.908371 99 91 86
190.628860 755.717346 40.871845 112 107 106
210.404587 771.961304 49.987774 111 100 94
203.308289 647.788940 319.692810 85 82 83
240.532562 821.907532 249.302765 52 49 48
195.743378 846.338745 209.483322 96 72 64
214.369186 866.220459 224.228775 55 50 48
246.923721 864.912598 226.128174 85 76 74
238.965317 969.913391 158.322525 121 112 108
213.218918 957.375916 292.610291 163 150 144
261.558472 517.376282 100.659050 107 98 94
295.449829 584.869568 124.859192 58 58 62
306.645691 553.264832 228.490570 94 81 74
330.745697 728.797363 180.083496 74 70 69
315.700195 730.142395 296.036957 98 94 93
341.474640 716.831909 296.663788 109 106 107
362.388306 726.147522 304.668274 130 123 122
260.860992 930.755127 207.815582 56 50 45
281.069702 790.842407 255.431549 88 82 79
285.034546 800.083496 341.972168 203 168 154
362.041077 790.984070 309.023529 148 136 131
166.808380 49.847008 113.689507 105 99 96
241.793289 364.156158 220.506989 82 80 81
332.640869 104.069374 282.501801 107 101 99
361.205170 147.219635 259.966400 121 116 116
135.264664 757.834045 225.009888 88 79 74
161.023727 609.114380 304.485321 76 75 78
210.995438 759.027649 266.615753 123 113 108
309.326111 557.050110 146.700455 91 79 68
274.809326 709.715088 87.085823 87 81 78
350.563324 763.986755 228.087082 83 77 73
286.988953 677.602295 265.765900 85 77 73
189.613449 27.541033 69.082664 93 87 85
239.898651 88.092857 111.024200 70 61 54
192.871307 19.596735 168.541519 126 115 108
173.124969 146.191666 92.277702 98 92 89
234.148041 191.332092 129.610748 104 99 98
230.171494 373.521637 116.852867 116 111 111
226.259567 396.829010 184.091461 80 79 80
248.362335 458.271973 276.068054 143 135 135
310.514099 105.289711 230.609024 74 71 71
343.791168 185.282074 215.821442 105 101 102
325.442871 92.751686 271.679657 77 74 74
307.368164 238.007980 308.363220 105 99 97
374.900574 172.662643 266.416718 143 135 133
260.820404 315.773285 232.860748 63 58 55
328.671906 414.199524 215.433044 125 119 119
328.577362 429.970673 231.909546 119 113 112
123.888039 624.280701 107.676193 49 50 53
70.806595 676.604126 125.229576 75 73 73
86.848320 669.699707 239.523178 113 101 91
140.010086 623.587036 208.127808 64 62 62
206.890015 595.488892 348.699707 56 57 60
181.217743 783.336060 244.248428 87 82 80
254.471771 877.361389 172.779602 128 115 113
246.494400 837.879272 299.876862 171 167 172
306.555908 530.544922 140.433319 111 106 105
296.189178 627.094421 239.553467 101 97 97
290.045807 675.340698 88.819038 104 99 98
266.405212 667.276733 266.651031 104 98 96
288.481873 718.668762 284.875763 29 31 33
302.766205 797.785400 308.835083 110 87 74
340.457794 791.235291 329.668793 182 173 171
164.668884 185.768509 108.622398 118 112 111
161.118439 203.734787 86.308464 106 103 105
226.567886 147.596527 147.758102 68 65 65
208.659546 206.542801 170.339920 79 74 72
119.235664 426.454987 114.325218 93 88 87
213.099854 344.134125 164.016953 94 90 89
145.282822 407.003204 90.564972 99 95 96
234.757126 340.216339 286.106781 91 79 69
357.860016 43.957832 211.898331 112 105 101
352.387817 151.579086 224.557068 69 61 55
309.603760 89.765862 257.653687 108 102 101
373.259796 12.285500 355.918488 86 78 72
303.696472 251.158920 318.253601 105 99 97
335.780090 231.922241 294.607513 102 87 74
385.123718 32.885067 289.629608 130 118 110
305.863281 370.444366 195.747940 97 92 91
264.518677 457.756165 134.149750 100 97 97
329.025604 459.342529 212.902893 137 130 128
112.696335 533.416443 113.059151 89 85 85
116.521492 585.947510 164.340805 59 55 54
90.905121 770.709656 181.234985 105 92 84
184.221909 629.917908 94.568016 52 52 53
219.224564 549.561523 82.541275 29 31 38
161.009109 520.357727 226.410355 150 143 143
111.427315 665.398499 260.168121 88 83 79
106.728195 697.643188 272.857452 124 119 122
142.065201 635.215027 261.760803 86 78 72
208.508972 593.077026 251.046021 51 53 57
249.051651 520.505249 397.741028 75 76 81
100.631912 795.877136 185.020538 116 107 103
148.680161 851.819885 179.666443 171 158 153
161.304276 833.886841 210.186600 140 130 127
187.139969 943.876282 159.741592 78 76 78
203.758545 987.512756 158.311386 142 132 129
318.062805 617.755371 144.863007 90 79 72
299.633514 649.609009 249.054657 109 96 86
343.391968 760.441223 363.413025 161 151 148
283.976501 785.172546 98.625534 93 86 81
284.732269 853.807251 218.204712 144 130 122
274.096558 843.195679 248.108368 62 56 55
268.280914 915.868835 231.365891 80 70 63
275.571899 972.993347 251.288651 154 140 131
270.504242 787.520142 310.592773 86 78 74
191.143616 44.314056 81.315269 69 67 67
209.661652 99.545387 69.668869 91 87 87
151.369370 34.939800 168.973129 141 128 120
211.060165 134.662720 165.170441 86 82 82
211.617264 195.387939 166.141113 91 87 88
121.659691 328.971558 155.665436 94 82 72
103.817406 414.603699 153.597336 79 74 73
114.250908 444.663391 152.713974 119 114 115
150.332947 326.613129 109.969368 120 116 117
162.692902 403.469208 75.615776 110 107 108
224.820831 397.261597 132.930908 99 93 92
192.362457 409.876862 205.095917 88 82 81
224.874084 452.518829 270.368439 165 159 162
232.839035 511.324341 258.349304 158 154 158
313.096161 109.018806 254.602936 84 80 80
275.723816 202.992432 272.445343 91 86 85
367.873383 166.523148 258.419586 110 108 109
351.190430 246.743134 252.360764 125 116 112
307.266144 515.643738 148.900864 114 109 109
302.171539 431.364899 287.691925 127 119 115
311.541656 481.106842 267.411163 149 142 143
331.994690 456.675110 263.777710 149 142 142
190.002274 629.126099 69.227570 79 73 71
218.340836 542.338196 56.789688 98 88 80
139.711166 598.287537 209.912140 111 102 98
179.651642 592.934509 244.436752 99 94 94
187.563568 752.180664 61.180580 71 68 68
223.786377 658.874084 64.162148 81 76 74
160.370087 639.798523 305.222839 50 51 55
214.086807 571.347717 372.447479 96 96 101
230.860626 624.488892 351.974396 69 70 74
221.494553 631.842041 360.046021 58 60 64
103.836548 824.562378 124.456856 130 121 119
56.142807 782.930542 141.594238 132 118 110
84.316719 811.074341 142.109177 121 110 104
84.881737 814.278320 166.965927 144 135 134
131.511063 852.025146 149.110336 103 96 95
197.010910 863.250916 217.697052 118 102 93
151.450836 960.683044 217.575363 118 109 104
242.961761 1001.307068 260.854523 203 185 176
290.487640 592.116150 230.643341 52 54 57
322.148773 604.345093 168.586792 84 75 70
267.397064 668.178711 80.663864 103 98 97
296.316010 670.577759 99.014275 113 106 102
298.011719 741.897766 250.966537 57 55 54
332.094727 648.511169 167.681763 115 105 99
327.563263 659.607239 190.397141 85 76 70
293.112793 758.352234 275.210876 98 92 91
331.131683 735.859070 381.150513 117 111 112
335.403168 823.978333 191.665283 113 101 93
352.200226 797.926575 279.365509 165 155 151
329.069244 775.159485 370.274628 212 203 205
190.013214 184.114578 70.879364 99 96 96
194.383911 136.916183 151.551025 104 96 93
111.817871 458.134918 115.526917 116 112 113
377.793427 83.868942 218.957596 85 82 82
281.747803 320.781372 309.825256 149 141 140
127.337776 615.981567 88.538910 42 45 49
108.733940 730.215881 118.121071 81 78 79
227.180496 598.458252 92.716805 72 65 61
206.020935 603.867188 253.322540 121 117 119
131.170975 768.444946 93.641647 111 105 103
170.365601 668.189392 319.756683 55 57 61
219.954147 670.677856 359.294830 91 96 105
169.800766 989.094177 243.238373 118 118 133
320.967712 633.788513 169.876663 88 81 78
308.876160 737.563843 277.142944 87 85 85
339.297699 818.601990 277.022644 166 162 168
175.436508 34.233265 94.459084 112 106 104
206.843338 66.998444 145.967453 91 86 86
226.107727 81.558685 135.023712 68 66 66
172.236923 176.515549 73.173409 94 92 94
231.106918 185.919739 115.208168 93 88 86
164.463577 150.940140 136.348450 90 83 79
138.706284 249.222260 160.488083 113 108 108
174.826172 204.663040 155.665619 101 98 99
244.710373 345.276703 226.732391 85 84 86
175.510147 433.091339 81.982628 116 112 114
211.862640 435.900635 103.126526 76 75 77
211.477798 450.931732 105.818596 93 88 87
202.901871 464.539642 85.216370 108 105 106
230.749893 374.655609 287.396240 106 97 94
251.538315 431.932037 290.253815 159 153 156
316.248291 82.624992 235.723984 80 75 74
364.944153 88.658447 206.820892 79 75 75
380.582214 66.452293 250.728027 106 100 97
337.949493 237.855194 219.449066 85 79 76
325.815582 22.611671 348.241821 106 95 89
365.403870 108.779007 272.058075 104 93 88
309.872375 167.745056 281.452057 135 128 128
270.238129 227.740616 297.368866 101 96 95
287.059387 334.008698 205.344376 94 91 92
325.518555 333.771057 242.397964 120 114 113
333.007172 350.591248 258.153168 128 122 121
294.432983 409.781281 174.439087 117 113 114
291.986877 466.863342 138.945236 139 136 138
255.305130 262.053986 259.940979 79 75 74
338.085846 333.930206 259.441895 99 90 86
332.678040 400.626282 272.334198 127 120 119
64.240730 644.400818 159.912140 89 86 87
92.306313 746.263184 104.242477 122 117 117
41.933601 734.158142 149.559692 121 114 112
64.238655 641.034302 193.219360 85 79 75
160.532761 509.065765 62.665642 91 86 83
155.353775 619.578308 104.030128 83 79 78
243.639557 600.006348 99.123016 78 71 66
229.391830 558.287231 251.299026 136 130 131
202.049988 677.122986 45.782875 96 89 86
201.040558 730.250977 41.560635 113 106 104
232.738754 767.780212 77.152679 85 79 76
145.288101 575.313660 304.715973 86 87 91
247.675140 525.156738 408.338898 81 82 87
155.077881 696.575500 272.161102 76 70 68
176.727737 711.684082 300.978333 69 72 78
119.287552 823.347107 107.179047 115 104 97
188.793732 794.730835 248.015915 112 104 101
179.093735 881.060974 193.504318 138 103 98
253.300629 960.848694 164.359756 93 85 80
236.213165 994.607178 171.414810 177 164 158
246.901489 1011.885010 199.106033 194 182 178
240.577377 1004.228271 224.158997 216 197 188
234.150360 834.050842 270.999176 42 44 47
245.561584 823.564087 263.687927 39 39 41
215.277267 905.984192 261.001556 155 134 123
262.310760 579.555054 102.805885 85 83 84
297.386902 597.387207 115.682571 91 85 82
299.614624 622.613525 146.747147 70 68 68
339.875916 767.970459 183.065338 119 108 101
314.177460 726.623291 323.144104 80 73 71
314.612915 709.028320 326.972321 88 83 81
268.574738 870.089966 173.326309 107 101 99
266.503326 858.074097 253.893387 132 124 124
355.571014 792.815369 230.437805 102 95 91
277.956940 825.444702 302.650970 147 121 106
296.213715 787.081116 305.871613 40 39 39
194.335526 54.638699 69.342072 91 90 92
123.457527 501.539612 193.510788 138 133 134
134.593201 380.128998 201.599426 148 140 139
149.216171 500.774963 217.658905 137 130 128
195.503311 485.798370 243.301468 128 122 123
362.222656 98.511955 212.907394 84 82 83
334.073029 15.261373 285.226196 91 85 82
310.455536 332.193268 217.621597 126 121 121
301.709656 313.627258 317.077362 169 163 164
109.345230 592.542236 93.341507 53 53 55
230.572342 625.620422 107.720963 44 44 46
230.500839 636.492065 103.778152 54 52 52
176.226181 645.183228 100.622559 64 63 64
127.331886 722.271912 246.583328 85 77 74
161.861786 612.419312 267.673706 100 96 95
141.272568 687.676453 304.652435 124 108 104
166.138550 834.229614 81.134850 43 46 51
181.254745 844.298950 221.183243 122 111 104
237.343018 935.430298 153.850922 44 45 48
246.462097 998.816650 179.774857 161 147 139
248.973557 617.217590 112.678421 56 54 53
319.019592 696.159912 137.840759 107 99 96
331.493103 704.207642 356.044708 92 87 86
317.060608 817.661377 269.559540 97 84 76
179.140808 89.536507 124.520599 102 95 94
221.385986 55.278381 128.483459 85 80 79
196.265671 120.206146 159.946869 108 103 103
175.734772 188.620972 78.094460 118 115 117
160.378067 221.230392 148.538727 104 100 100
215.251831 333.051147 172.234879 87 84 85
177.094513 444.679779 215.095459 89 83 81
280.646027 248.381714 322.259613 103 97 96
343.415283 267.862732 238.337158 130 118 111
78.335464 653.651794 217.867142 100 92 87
115.557564 644.644653 240.322113 108 100 96
120.774887 751.510742 211.258957 69 67 67
173.439453 530.679443 42.348057 102 96 94
215.175644 604.604431 58.875797 70 64 60
218.532883 514.005615 256.535645 143 138 139
131.609741 662.932983 105.377029 94 91 92
159.639175 737.232117 241.216263 110 101 97
226.376678 528.700928 381.254364 51 53 57
181.839127 842.470337 89.051826 35 38 42
199.078445 914.818604 168.206284 79 73 70
235.585144 926.575256 173.628586 41 39 39
255.793686 809.845337 313.249908 120 105 98
309.210510 617.203186 191.524612 105 98 95
260.334869 587.286438 244.364609 49 51 55
305.983765 729.237244 250.115402 52 50 51
286.301300 695.901978 307.109161 96 90 88
368.032166 777.596497 278.571289 116 109 108
186.725037 22.087925 81.853622 84 79 77
128.190475 28.049854 155.992844 132 122 118
174.624786 13.437675 179.717697 120 110 105
166.922775 21.775965 208.639191 97 86 79
237.592941 158.556335 104.391716 91 84 80
224.850510 157.817337 161.295303 91 87 85
122.832100 403.830200 130.428528 133 129 131
116.263039 490.756195 174.254883 143 138 140
170.898026 257.878632 86.326668 116 109 106
163.415131 313.649200 106.493469 110 106 107
157.990448 328.784882 110.243164 117 112 112
137.318283 376.057343 112.659218 109 104 104
141.026901 269.253845 168.145050 122 116 116
129.774261 324.231750 134.999405 87 77 68
218.535080 355.954529 178.049545 55 52 50
227.876389 361.735535 248.051361 107 103 104
198.166412 448.352875 92.398468 76 71 70
169.567871 405.893951 205.581360 105 100 100
245.689133 418.972534 168.863434 73 71 72
256.150299 275.512207 263.364319 77 68 61
248.209259 405.339325 289.850067 150 144 146
274.818054 182.067871 242.497467 95 91 92
345.247223 248.855713 232.460312 140 132 131
368.860321 10.250181 308.639526 112 103 99
373.223022 54.464855 262.946442 97 87 81
310.822174 132.383392 270.586609 71 66 65
291.820831 433.144714 155.309021 112 108 107
335.357574 416.319916 209.037811 147 138 136
310.773346 335.458923 304.742462 113 96 81
288.300903 494.460480 279.106354 174 168 171
323.338257 446.818726 270.882782 109 96 88
120.716377 630.661560 213.933578 116 110 109
93.590172 721.573486 110.395775 92 84 79
112.967979 663.080994 158.433548 80 78 79
96.631813 728.075134 187.645721 77 66 58
147.750870 550.349792 57.828667 113 104 98
140.018021 619.496094 216.771912 64 62 62
244.975555 573.528564 241.154419 66 65 67
195.940277 731.567139 49.052048 61 58 58
126.340652 698.760254 296.771637 172 163 163
126.057327 668.702637 260.415253 45 45 47
140.305313 698.257690 300.822327 173 163 162
173.620651 681.098938 302.895081 42 43 46
209.273407 648.952087 291.814178 99 91 87
194.511597 723.631958 267.150635 72 68 66
143.208878 872.163025 135.657074 65 68 73
165.145096 876.957581 167.002258 124 110 101
233.035065 851.021057 224.417236 56 47 44
205.429382 1012.636841 240.494705 200 184 178
251.572678 811.146118 299.186890 57 55 56
278.056000 621.287598 238.651764 92 88 89
297.056702 604.399536 223.571548 49 51 56
325.462921 563.930847 188.429245 86 79 74
349.544769 605.154297 189.384583 104 94 86
259.164856 701.703369 74.058174 95 88 85
284.335907 650.807556 246.951981 124 118 117
320.495331 678.396484 129.296875 80 74 72
327.015198 684.877197 175.925552 135 127 125
328.808838 720.685852 146.802048 109 101 96
353.659790 715.825134 341.022217 109 101 98
271.183289 832.814697 249.803452 68 62 58
288.140869 779.940552 277.008850 86 80 78
307.860199 804.029663 338.640961 187 148 128
140.651077 32.179604 209.848297 163 151 145
184.563782 149.508011 71.225517 82 79 78
228.580475 136.727371 78.211159 104 100 99
110.845879 457.788208 157.483597 121 118 119
134.845291 366.123383 119.529373 88 86 86
195.040909 335.893799 102.760605 80 73 69
223.364441 374.659271 106.318161 123 119 119
182.265427 312.184235 188.465591 91 85 84
214.236771 404.682953 100.631104 112 107 107
217.711273 428.783051 107.749229 114 109 109
326.339569 51.640858 222.693710 82 78 78
323.796875 40.649513 296.631653 114 104 98
305.805878 180.138229 266.842804 101 97 97
183.783493 635.543884 326.085602 81 81 85
254.493622 694.658264 312.130676 78 69 62
233.774063 644.355469 356.051697 52 57 64
318.815033 731.544189 224.359131 53 48 45
322.289795 713.537354 256.609802 91 83 78
301.582947 784.259949 107.263100 114 107 104
260.925232 871.937073 170.477951 123 117 117
226.233643 68.647987 119.029724 61 58 58
153.112122 226.708847 115.613037 115 112 114
234.126190 144.480698 83.747215 112 106 104
180.617783 216.495697 171.801895 108 105 107
116.783546 364.647980 152.231827 133 130 131
157.022293 348.934357 118.607124 113 110 111
226.156937 330.540649 124.564133 82 71 63
144.059586 347.879456 132.231216 106 103 103
146.310379 472.027283 217.319244 103 96 94
232.828506 410.658661 134.191528 92 86 83
242.677689 471.792419 431.170563 69 72 78
372.474030 50.262302 258.678741 131 120 115
372.392212 136.101944 228.278549 116 111 110
312.368561 106.612396 279.136566 101 96 96
301.908844 200.506424 278.740692 115 109 109
353.694916 206.302155 261.771210 118 113 113
286.325592 264.243042 232.791626 91 87 88
310.080933 311.887360 223.562927 100 97 97
297.730988 386.206390 183.546051 94 90 90
318.659302 408.542236 182.492523 103 99 98
312.665192 400.328247 190.211609 129 123 123
315.762390 313.641693 312.481873 155 150 152
271.980377 358.787170 303.492188 136 129 128
320.887299 374.585144 296.222687 171 164 165
52.030762 638.280273 166.663635 116 114 117
47.889046 642.906555 197.940109 122 118 120
165.877548 564.832520 62.380787 99 92 88
133.752960 610.410217 105.239998 63 61 63
165.180176 643.762634 111.360252 50 51 54
207.840912 572.408813 36.543327 118 111 109
227.592667 590.989624 88.270302 73 72 73
130.684402 617.553650 178.507431 99 94 94
128.994385 577.771973 199.952347 51 52 55
154.133591 646.234375 76.878105 98 93 92
218.021896 646.193054 61.533230 100 93 90
140.139084 590.090271 309.196320 95 97 104
183.554031 753.102051 273.423676 60 63 68
204.030548 678.366638 329.945953 123 120 123
247.074081 726.298462 284.222656 93 84 79
97.727249 819.581726 111.233673 135 128 128
140.818283 857.158264 119.739082 60 58 61
177.228485 838.860291 74.937553 45 49 55
203.591843 836.030823 110.568764 83 71 65
222.742676 854.045593 248.244080 56 52 52
250.533524 869.390808 208.830185 114 90 82
186.749420 946.616272 239.229279 66 59 55
245.787354 937.741333 175.602921 63 56 53
215.409637 837.642090 260.026672 38 41 46
312.454071 592.697571 226.249924 86 80 78
331.088654 573.131775 182.044418 75 72 71
321.915253 598.414490 149.396561 67 60 54
325.741791 609.538818 223.063446 114 104 98
280.397675 723.122131 87.025528 98 92 91
262.115479 775.506287 87.623177 105 98 96
268.795746 787.824951 256.907684 111 103 100
286.586975 841.755371 223.492569 96 87 84
262.409515 799.472473 335.332397 146 128 119
263.486359 843.385986 287.956512 151 143 140
171.211716 362.158600 106.414520 99 93 91
218.343033 353.843201 116.332191 100 93 89
158.549683 2.300865 188.598846 116 107 103
186.562897 125.802536 145.805695 124 118 117
161.981277 159.050797 122.969681 119 115 116
226.206619 154.773560 75.633842 108 105 106
124.115829 386.334290 129.094193 99 94 94
168.937973 377.657043 207.215225 127 123 124
247.273331 309.580750 244.577026 92 90 91
229.759079 365.503510 151.513794 71 66 63
155.246658 483.397369 93.314957 90 87 89
190.400574 484.310638 79.892731 89 86 86
183.754059 457.937408 229.348999 102 96 94
368.882355 122.111603 237.425873 120 116 116
287.549744 133.847244 238.650055 84 81 81
361.845947 212.034271 228.732162 100 94 92
377.582153 22.668015 270.216736 94 87 82
381.647919 14.174255 296.439880 131 122 119
377.709167 31.505823 289.990601 136 123 115
373.402863 35.686825 345.727295 168 153 146
260.010254 243.815063 289.970001 117 114 115
316.047546 321.993011 223.291412 98 95 97
334.477478 462.913147 232.806076 132 125 125
344.614136 259.357880 278.376129 129 125 127
131.988602 714.580627 101.843102 88 83 83
86.020790 671.894653 142.376114 58 57 59
89.142181 653.908020 205.268295 77 73 70
103.067841 702.616577 145.722733 79 71 66
98.060677 702.650330 192.206024 65 57 52
114.957642 747.173035 215.576797 85 81 81
211.550308 620.098694 69.172073 48 46 47
148.068008 535.444336 218.504791 136 129 128
178.806519 649.996521 74.854179 72 68 68
170.960831 733.798584 82.021439 68 66 67
132.981003 639.577942 261.435577 101 94 91
144.614471 637.221130 291.744934 66 66 68
235.283875 660.839294 347.425507 37 42 47
203.327026 731.036011 284.273438 96 92 91
222.097809 722.692810 296.636383 123 117 116
234.640793 724.195496 277.653107 73 69 67
61.493233 792.364197 143.360565 131 117 108
231.456207 825.934875 117.917107 129 119 116
204.767395 834.221313 98.037369 137 128 125
146.014114 796.016846 217.793228 136 126 123
175.114075 806.032288 231.996582 143 133 130
245.191299 895.397949 237.618790 118 101 88
158.589508 977.886475 227.395203 130 119 114
177.253876 996.080505 244.340317 157 163 175
208.478928 852.585876 269.491821 67 67 72
225.360184 970.500000 289.519989 170 157 150
308.614380 611.630981 162.416946 84 79 77
325.569305 570.526978 221.165100 113 101 93
265.612213 526.446899 267.154846 137 128 126
313.692932 743.052002 259.517242 90 88 89
319.600159 748.891846 378.711700 194 188 192
370.739624 768.314026 276.623138 87 80 77
319.279236 835.734558 179.123016 139 128 122
266.370544 955.305664 177.423248 36 36 39
279.899323 947.346130 204.528168 98 92 90
272.496796 814.715820 332.563751 56 57 61
309.932465 786.124268 361.204681 187 178 179
145.124298 15.440480 128.648804 80 77 78
166.668900 74.680984 97.489113 86 82 80
152.229126 5.396688 137.220169 77 75 75
133.685562 10.947962 205.098251 73 66 61
145.670486 12.884202 191.164764 73 66 63
151.413788 239.984161 120.640862 110 106 108
161.432159 200.736053 115.764473 90 86 86
161.649567 214.479065 97.842766 125 120 120
213.274277 162.202866 73.226173 93 86 82
240.044174 177.528854 106.858177 112 105 103
216.020065 209.066055 76.561562 127 123 125
231.954895 213.514679 97.368149 100 91 87
180.248459 133.780396 132.124420 92 88 86
157.901581 236.713531 167.244431 96 93 94
204.295013 142.798355 157.841690 86 78 75
148.686279 383.210083 94.294342 125 121 122
199.479324 259.019165 80.578102 122 114 111
207.840378 356.899719 104.313560 82 80 82
155.752579 302.870758 180.631882 132 125 125
146.435867 318.171661 178.996277 65 59 55
143.831085 371.436676 203.842300 123 115 112
147.529892 448.286682 93.705246 107 103 104
172.778061 489.326172 78.452423 110 104 100
173.078323 427.921722 211.291641 117 110 108
165.783371 468.365448 216.693100 72 67 64
180.262848 493.046021 246.869156 123 118 119
232.913071 406.537750 183.399872 90 88 90
237.942322 399.816101 198.023071 69 69 72
305.311188 153.650726 221.510559 81 80 81
350.760223 5.829914 285.383057 73 68 65
322.094452 127.949364 276.521057 66 61 58
332.918304 146.162750 290.509827 108 105 105
275.849854 377.186615 315.771667 156 150 151
327.466034 270.499451 299.418610 145 139 138
123.307686 565.518494 123.337379 41 42 45
91.627167 760.979004 101.285233 111 105 105
32.144947 669.448364 141.110718 109 104 102
65.319839 711.325439 190.273682 180 171 173
89.972260 644.816528 175.572937 79 77 79
87.553963 663.142639 158.534073 70 69 70
82.783775 683.670105 245.699463 144 122 105
175.383408 572.368652 54.088997 100 93 89
225.543793 559.014526 71.918350 85 77 70
130.199860 605.325256 134.105026 107 99 97
156.366684 586.183777 226.021240 54 54 56
142.532745 714.037292 83.355652 104 98 97
141.669785 738.276855 88.202240 55 54 56
152.699844 753.265564 231.628342 92 84 80
101.299889 699.159973 261.680023 155 123 110
180.462524 619.198486 318.148773 54 52 52
220.967407 583.972839 383.707092 132 130 134
208.388687 607.108521 362.072601 99 100 105
229.387100 548.058716 403.075958 103 104 111
224.832581 581.156555 383.949738 133 132 138
188.106506 676.126160 322.360504 130 129 134
233.010162 676.172546 352.927734 43 45 49
