ply
format ascii 1.0
element vertex 1112
property float x
property float y
property float z
property uchar red
property uchar green
property uchar blue
end_header
131.000000 690.000000 103.000000 108 104 104
130.000000 702.000000 100.000000 107 102 101
168.000000 649.000000 78.000000 85 81 80
175.000000 648.000000 77.000000 78 75 75
169.000000 662.000000 75.000000 102 96 95
174.000000 657.000000 72.000000 100 95 93
169.000000 668.000000 77.000000 101 95 93
191.000000 649.000000 69.000000 83 80 80
179.000000 644.000000 80.000000 86 84 85
183.000000 644.000000 95.000000 64 62 63
177.000000 662.000000 71.000000 88 83 82
165.000000 643.000000 102.000000 78 74 74
176.000000 642.000000 102.000000 65 64 66
178.000000 648.000000 96.000000 64 63 64
191.000000 646.000000 98.000000 65 63 64
172.000000 674.000000 76.000000 109 104 103
164.000000 686.000000 80.000000 109 104 103
168.000000 691.000000 78.000000 95 89 87
181.000000 676.000000 64.000000 92 87 87
178.000000 692.000000 73.000000 94 89 87
185.000000 709.000000 61.000000 101 98 98
190.000000 713.000000 59.000000 83 79 78
191.000000 714.000000 56.000000 75 71 71
191.000000 729.000000 55.000000 68 65 64
189.000000 735.000000 55.000000 72 67 66
187.000000 746.000000 61.000000 73 69 69
187.000000 751.000000 60.000000 50 49 50
181.000000 764.000000 61.000000 90 83 80
187.000000 753.000000 54.000000 89 84 82
133.000000 709.000000 95.000000 104 98 97
141.000000 707.000000 89.000000 89 82 78
135.000000 720.000000 90.000000 109 105 105
147.000000 705.000000 86.000000 88 81 76
157.000000 711.000000 82.000000 94 90 89
146.000000 734.000000 90.000000 84 81 82
152.000000 721.000000 81.000000 83 78 75
153.000000 729.000000 81.000000 98 89 84
128.000000 723.000000 101.000000 102 96 95
141.000000 745.000000 89.000000 113 108 107
136.000000 766.000000 84.000000 137 130 130
147.000000 738.000000 90.000000 106 101 100
146.000000 743.000000 88.000000 102 97 96
150.000000 747.000000 86.000000 101 96 95
156.000000 742.000000 87.000000 100 96 95
148.000000 762.000000 82.000000 109 104 103
133.000000 742.000000 98.000000 97 93 93
163.000000 710.000000 79.000000 81 74 70
166.000000 704.000000 76.000000 75 69 67
172.000000 706.000000 74.000000 94 90 90
162.000000 720.000000 78.000000 78 72 69
163.000000 732.000000 78.000000 80 72 69
175.000000 734.000000 72.000000 113 107 106
181.000000 706.000000 65.000000 79 77 78
181.000000 710.000000 66.000000 80 76 76
181.000000 716.000000 66.000000 81 75 72
176.000000 723.000000 70.000000 117 111 110
164.000000 737.000000 83.000000 66 64 65
166.000000 741.000000 86.000000 63 62 64
170.000000 746.000000 83.000000 71 69 70
160.000000 761.000000 80.000000 103 98 98
198.000000 653.000000 49.000000 56 52 49
206.000000 643.000000 58.000000 122 117 118
199.000000 665.000000 49.000000 58 54 53
211.000000 655.000000 44.000000 88 81 77
210.000000 645.000000 57.000000 109 104 102
214.000000 651.000000 49.000000 107 100 98
215.000000 654.000000 51.000000 110 102 97
215.000000 652.000000 55.000000 108 99 95
213.000000 658.000000 47.000000 99 92 89
212.000000 669.000000 43.000000 119 113 112
214.000000 660.000000 54.000000 83 76 71
215.000000 671.000000 54.000000 103 95 90
215.000000 666.000000 58.000000 104 93 86
199.000000 685.000000 46.000000 101 95 93
200.000000 679.000000 45.000000 105 101 101
193.000000 686.000000 55.000000 85 80 79
197.000000 685.000000 52.000000 84 78 76
202.000000 672.000000 49.000000 53 49 48
203.000000 690.000000 44.000000 129 122 122
205.000000 699.000000 46.000000 115 109 107
197.000000 696.000000 50.000000 70 65 63
207.000000 703.000000 48.000000 97 90 87
208.000000 680.000000 41.000000 123 115 112
209.000000 687.000000 43.000000 92 84 78
213.000000 682.000000 46.000000 83 75 70
215.000000 677.000000 53.000000 90 80 72
217.000000 675.000000 59.000000 104 96 91
216.000000 692.000000 52.000000 78 71 66
220.000000 695.000000 61.000000 80 76 74
220.000000 702.000000 59.000000 70 64 60
203.000000 645.000000 67.000000 116 111 111
203.000000 642.000000 76.000000 79 74 72
210.000000 641.000000 80.000000 61 58 56
220.000000 663.000000 66.000000 71 66 64
211.000000 643.000000 97.000000 87 82 81
214.000000 644.000000 99.000000 91 86 85
221.000000 685.000000 64.000000 83 78 77
235.000000 652.000000 79.000000 91 86 84
224.000000 660.000000 70.000000 66 60 57
228.000000 663.000000 71.000000 86 79 76
233.000000 667.000000 72.000000 113 107 105
247.000000 652.000000 83.000000 88 83 81
253.000000 650.000000 86.000000 89 85 85
253.000000 648.000000 93.000000 83 79 78
244.000000 663.000000 77.000000 109 102 99
241.000000 665.000000 75.000000 119 113 111
248.000000 664.000000 78.000000 108 101 98
230.000000 641.000000 110.000000 54 54 56
248.000000 645.000000 109.000000 63 62 64
224.000000 684.000000 67.000000 97 92 91
235.000000 682.000000 70.000000 101 96 95
225.000000 697.000000 66.000000 98 93 92
239.000000 700.000000 70.000000 101 98 98
242.000000 687.000000 72.000000 94 87 83
246.000000 693.000000 72.000000 102 95 93
198.000000 719.000000 48.000000 124 118 117
202.000000 729.000000 45.000000 122 117 116
215.000000 711.000000 52.000000 84 77 73
209.000000 721.000000 50.000000 111 103 100
213.000000 721.000000 50.000000 114 107 105
213.000000 727.000000 49.000000 114 108 107
220.000000 730.000000 62.000000 71 63 58
203.000000 736.000000 44.000000 111 105 103
207.000000 744.000000 47.000000 101 93 89
193.000000 736.000000 49.000000 67 63 62
197.000000 761.000000 47.000000 118 111 110
202.000000 765.000000 47.000000 127 120 119
210.000000 739.000000 48.000000 109 102 98
211.000000 743.000000 49.000000 115 108 106
215.000000 746.000000 54.000000 95 88 85
216.000000 736.000000 54.000000 104 97 93
225.000000 714.000000 54.000000 80 76 75
219.000000 742.000000 65.000000 68 62 60
219.000000 762.000000 71.000000 71 65 61
224.000000 704.000000 65.000000 92 88 88
238.000000 716.000000 70.000000 119 113 110
226.000000 732.000000 67.000000 111 105 105
230.000000 730.000000 69.000000 88 82 81
242.000000 705.000000 72.000000 83 76 72
249.000000 704.000000 74.000000 88 80 75
253.000000 705.000000 76.000000 117 112 112
242.000000 723.000000 72.000000 94 86 81
230.000000 737.000000 70.000000 108 102 101
231.000000 767.000000 77.000000 83 76 72
246.000000 744.000000 77.000000 104 97 93
252.000000 746.000000 79.000000 126 119 116
249.000000 753.000000 81.000000 96 88 83
248.000000 763.000000 83.000000 115 110 111
253.000000 761.000000 85.000000 96 91 90
128.000000 726.000000 234.000000 115 106 102
131.000000 733.000000 227.000000 115 106 102
138.000000 735.000000 232.000000 107 93 83
150.000000 732.000000 241.000000 106 97 92
158.000000 730.000000 248.000000 101 92 87
129.000000 745.000000 224.000000 125 117 115
132.000000 744.000000 227.000000 108 97 91
151.000000 742.000000 238.000000 85 75 67
146.000000 759.000000 233.000000 76 71 69
146.000000 757.000000 239.000000 71 68 69
153.000000 752.000000 237.000000 88 82 81
161.000000 736.000000 245.000000 111 102 98
189.000000 747.000000 254.000000 81 76 74
192.000000 765.000000 254.000000 111 103 101
126.000000 665.000000 268.000000 34 36 39
119.000000 665.000000 278.000000 44 45 48
115.000000 668.000000 287.000000 72 67 65
117.000000 665.000000 282.000000 70 65 63
122.000000 656.000000 284.000000 40 41 45
124.000000 664.000000 272.000000 30 33 37
126.000000 649.000000 294.000000 78 75 75
117.000000 670.000000 294.000000 71 66 63
120.000000 663.000000 300.000000 83 80 82
102.000000 678.000000 263.000000 126 110 97
96.000000 683.000000 257.000000 134 113 97
100.000000 680.000000 261.000000 128 111 97
100.000000 684.000000 263.000000 134 114 100
106.000000 674.000000 262.000000 120 107 99
111.000000 677.000000 270.000000 103 100 101
110.000000 676.000000 282.000000 130 124 125
107.000000 702.000000 263.000000 154 125 112
110.000000 701.000000 271.000000 148 123 110
106.000000 689.000000 275.000000 106 101 102
113.000000 675.000000 263.000000 81 75 73
118.000000 677.000000 296.000000 123 117 118
113.000000 688.000000 290.000000 146 139 138
123.000000 711.000000 273.000000 172 142 132
141.000000 566.000000 313.000000 105 107 114
143.000000 571.000000 317.000000 115 116 124
140.000000 581.000000 302.000000 55 58 62
134.000000 576.000000 308.000000 107 109 116
133.000000 582.000000 306.000000 100 103 110
142.000000 576.000000 305.000000 61 65 71
143.000000 577.000000 317.000000 126 126 131
143.000000 581.000000 315.000000 104 106 113
140.000000 590.000000 310.000000 97 99 106
141.000000 585.000000 313.000000 101 103 110
146.000000 580.000000 302.000000 79 80 84
144.000000 591.000000 313.000000 103 104 109
152.000000 576.000000 309.000000 99 99 102
155.000000 577.000000 310.000000 109 107 111
151.000000 599.000000 301.000000 107 105 108
151.000000 598.000000 316.000000 98 99 104
136.000000 636.000000 256.000000 99 92 89
154.000000 635.000000 275.000000 88 83 81
157.000000 635.000000 278.000000 89 84 83
180.000000 592.000000 319.000000 105 104 107
170.000000 615.000000 270.000000 97 92 91
170.000000 621.000000 275.000000 85 81 80
167.000000 624.000000 275.000000 88 82 80
180.000000 610.000000 256.000000 69 67 67
181.000000 612.000000 269.000000 91 88 87
190.000000 621.000000 282.000000 79 74 72
177.000000 631.000000 280.000000 85 81 82
186.000000 624.000000 284.000000 79 74 72
168.000000 615.000000 309.000000 72 71 74
166.000000 639.000000 299.000000 64 61 61
174.000000 627.000000 310.000000 58 59 63
174.000000 635.000000 304.000000 68 68 72
176.000000 623.000000 310.000000 56 56 60
178.000000 631.000000 308.000000 59 59 63
184.000000 633.000000 308.000000 45 45 49
188.000000 636.000000 310.000000 35 37 41
190.000000 632.000000 315.000000 74 73 74
154.000000 579.000000 320.000000 79 83 90
157.000000 585.000000 324.000000 106 108 114
155.000000 596.000000 320.000000 100 101 107
166.000000 582.000000 320.000000 50 53 58
161.000000 586.000000 326.000000 88 91 99
172.000000 584.000000 320.000000 84 83 86
162.000000 602.000000 323.000000 112 113 119
167.000000 604.000000 327.000000 108 108 113
166.000000 607.000000 325.000000 105 105 111
174.000000 593.000000 331.000000 49 52 57
173.000000 607.000000 332.000000 83 86 92
189.000000 604.000000 325.000000 60 59 60
185.000000 595.000000 339.000000 71 71 73
168.000000 611.000000 326.000000 95 96 101
175.000000 613.000000 332.000000 120 119 124
165.000000 627.000000 320.000000 34 37 42
169.000000 625.000000 330.000000 120 116 117
188.000000 610.000000 343.000000 100 100 106
187.000000 620.000000 340.000000 99 99 104
190.000000 617.000000 345.000000 93 93 98
180.000000 624.000000 333.000000 95 95 99
204.000000 575.000000 257.000000 60 63 69
228.000000 525.000000 256.000000 135 130 131
233.000000 518.000000 258.000000 152 148 151
235.000000 522.000000 258.000000 132 127 128
233.000000 526.000000 258.000000 127 121 120
241.000000 512.000000 261.000000 153 149 153
240.000000 534.000000 257.000000 153 149 153
244.000000 529.000000 259.000000 156 151 155
244.000000 533.000000 258.000000 157 153 157
247.000000 535.000000 258.000000 157 152 155
250.000000 532.000000 260.000000 160 155 159
253.000000 537.000000 258.000000 129 117 113
228.000000 567.000000 256.000000 59 61 66
254.000000 544.000000 257.000000 141 135 136
248.000000 552.000000 258.000000 136 132 134
215.000000 546.000000 382.000000 76 75 79
213.000000 556.000000 377.000000 91 92 97
217.000000 552.000000 374.000000 56 57 59
212.000000 566.000000 382.000000 71 74 79
211.000000 568.000000 371.000000 100 100 105
212.000000 571.000000 373.000000 70 72 76
234.000000 540.000000 378.000000 51 52 54
237.000000 545.000000 375.000000 47 47 49
241.000000 560.000000 381.000000 57 58 61
240.000000 573.000000 382.000000 122 119 121
215.000000 585.000000 259.000000 52 55 59
219.000000 583.000000 256.000000 45 49 55
217.000000 592.000000 259.000000 47 50 56
221.000000 596.000000 257.000000 48 49 52
199.000000 612.000000 258.000000 92 89 89
207.000000 612.000000 268.000000 76 74 74
199.000000 612.000000 275.000000 73 71 71
202.000000 611.000000 272.000000 73 71 71
221.000000 615.000000 267.000000 59 59 61
222.000000 617.000000 261.000000 76 76 78
194.000000 634.000000 290.000000 82 77 76
218.000000 637.000000 296.000000 99 92 90
225.000000 578.000000 256.000000 49 52 58
228.000000 580.000000 256.000000 48 50 54
225.000000 618.000000 262.000000 76 76 78
231.000000 622.000000 259.000000 69 67 69
226.000000 618.000000 287.000000 105 100 98
235.000000 624.000000 263.000000 56 56 58
251.000000 624.000000 265.000000 61 59 60
249.000000 631.000000 270.000000 107 102 100
240.000000 633.000000 273.000000 93 88 88
245.000000 635.000000 273.000000 98 93 92
227.000000 621.000000 288.000000 90 85 84
227.000000 631.000000 294.000000 125 117 115
192.000000 601.000000 343.000000 55 57 61
198.000000 601.000000 347.000000 43 45 49
210.000000 590.000000 348.000000 62 63 66
217.000000 588.000000 351.000000 63 63 66
204.000000 585.000000 359.000000 60 63 68
198.000000 603.000000 352.000000 69 70 75
205.000000 593.000000 367.000000 63 65 71
208.000000 576.000000 362.000000 49 51 55
216.000000 578.000000 356.000000 62 61 64
214.000000 578.000000 383.000000 94 93 97
212.000000 589.000000 380.000000 96 97 103
223.000000 589.000000 376.000000 112 114 121
213.000000 600.000000 373.000000 117 115 120
196.000000 613.000000 326.000000 92 89 90
193.000000 619.000000 349.000000 102 103 109
199.000000 619.000000 351.000000 100 103 112
198.000000 623.000000 350.000000 95 98 106
200.000000 636.000000 320.000000 78 77 78
204.000000 635.000000 325.000000 107 104 105
211.000000 620.000000 335.000000 92 90 92
210.000000 613.000000 338.000000 74 73 75
219.000000 621.000000 342.000000 57 56 58
210.000000 624.000000 333.000000 95 93 94
214.000000 626.000000 335.000000 133 131 135
216.000000 637.000000 330.000000 100 98 100
208.000000 628.000000 349.000000 107 107 113
219.000000 630.000000 337.000000 48 47 49
222.000000 619.000000 362.000000 98 99 104
211.000000 629.000000 352.000000 68 70 75
215.000000 631.000000 355.000000 88 88 93
226.000000 594.000000 350.000000 50 50 51
226.000000 600.000000 349.000000 60 59 61
224.000000 604.000000 351.000000 46 47 50
229.000000 600.000000 351.000000 64 64 67
230.000000 591.000000 361.000000 34 38 43
235.000000 589.000000 370.000000 95 92 93
232.000000 599.000000 362.000000 47 50 54
225.000000 630.000000 339.000000 54 53 55
227.000000 636.000000 337.000000 61 61 63
234.000000 636.000000 341.000000 67 64 65
226.000000 610.000000 353.000000 51 52 53
229.000000 614.000000 357.000000 81 83 89
222.000000 522.000000 395.000000 99 100 105
222.000000 532.000000 396.000000 90 89 92
217.000000 539.000000 385.000000 63 64 68
217.000000 543.000000 386.000000 88 87 90
219.000000 542.000000 391.000000 67 68 72
223.000000 530.000000 403.000000 55 57 61
215.000000 554.000000 389.000000 50 52 57
221.000000 552.000000 399.000000 86 88 95
222.000000 555.000000 398.000000 103 105 111
239.000000 532.000000 407.000000 114 112 118
244.000000 518.000000 405.000000 64 67 72
243.000000 531.000000 385.000000 53 53 55
243.000000 540.000000 404.000000 103 104 111
236.000000 546.000000 400.000000 106 109 116
226.000000 566.000000 389.000000 92 92 96
226.000000 569.000000 387.000000 53 53 58
229.000000 574.000000 384.000000 123 122 127
234.000000 573.000000 387.000000 98 99 105
241.000000 553.000000 384.000000 58 59 62
243.000000 553.000000 396.000000 112 112 117
245.000000 553.000000 392.000000 112 112 116
248.000000 544.000000 398.000000 115 115 120
243.000000 548.000000 400.000000 116 118 125
243.000000 564.000000 386.000000 112 113 119
131.000000 652.000000 270.000000 64 64 67
135.000000 652.000000 264.000000 58 57 58
141.000000 644.000000 260.000000 93 87 84
137.000000 649.000000 261.000000 62 57 55
134.000000 644.000000 280.000000 74 71 71
140.000000 642.000000 283.000000 43 46 49
142.000000 642.000000 287.000000 91 89 91
134.000000 657.000000 260.000000 77 73 71
150.000000 640.000000 271.000000 62 60 60
132.000000 649.000000 297.000000 82 78 78
133.000000 660.000000 310.000000 61 64 69
145.000000 654.000000 308.000000 82 75 72
149.000000 665.000000 317.000000 62 64 69
156.000000 665.000000 318.000000 108 100 97
157.000000 701.000000 285.000000 74 68 68
128.000000 691.000000 299.000000 140 132 132
144.000000 674.000000 315.000000 81 85 95
148.000000 672.000000 317.000000 76 78 88
145.000000 693.000000 302.000000 108 97 98
151.000000 693.000000 302.000000 126 113 110
150.000000 700.000000 294.000000 146 138 137
155.000000 700.000000 290.000000 86 79 78
173.000000 640.000000 290.000000 54 53 53
162.000000 646.000000 314.000000 43 44 47
160.000000 662.000000 319.000000 78 76 77
164.000000 671.000000 318.000000 107 98 96
174.000000 663.000000 315.000000 68 68 71
176.000000 670.000000 312.000000 87 87 92
164.000000 692.000000 274.000000 59 56 55
166.000000 692.000000 280.000000 84 79 78
160.000000 696.000000 272.000000 54 50 49
173.000000 689.000000 279.000000 72 68 67
171.000000 694.000000 283.000000 73 69 67
170.000000 701.000000 276.000000 110 102 98
185.000000 700.000000 282.000000 121 111 105
160.000000 675.000000 318.000000 130 121 118
170.000000 693.000000 295.000000 90 87 87
172.000000 695.000000 290.000000 95 90 89
174.000000 695.000000 303.000000 106 102 104
180.000000 673.000000 314.000000 93 94 99
182.000000 679.000000 315.000000 81 80 83
176.000000 694.000000 292.000000 80 75 74
182.000000 697.000000 293.000000 44 44 45
179.000000 700.000000 300.000000 72 69 72
180.000000 688.000000 313.000000 81 82 87
178.000000 699.000000 305.000000 85 82 84
187.000000 702.000000 312.000000 111 111 116
162.000000 649.000000 325.000000 142 136 138
174.000000 649.000000 323.000000 51 53 59
163.000000 667.000000 320.000000 124 117 116
176.000000 643.000000 325.000000 65 65 68
181.000000 641.000000 328.000000 84 85 91
187.000000 682.000000 324.000000 125 121 122
132.000000 713.000000 263.000000 103 90 83
140.000000 715.000000 268.000000 130 123 123
128.000000 712.000000 279.000000 139 133 135
156.000000 719.000000 261.000000 61 58 58
159.000000 717.000000 264.000000 79 72 71
151.000000 704.000000 287.000000 157 148 146
144.000000 728.000000 256.000000 106 101 101
155.000000 722.000000 260.000000 71 67 66
136.000000 705.000000 290.000000 170 160 158
151.000000 748.000000 261.000000 61 64 71
154.000000 739.000000 269.000000 105 108 116
154.000000 743.000000 267.000000 117 119 127
155.000000 749.000000 266.000000 125 125 131
150.000000 759.000000 258.000000 105 106 112
146.000000 760.000000 256.000000 96 100 108
154.000000 764.000000 256.000000 92 93 100
169.000000 711.000000 273.000000 105 96 91
162.000000 721.000000 263.000000 80 78 79
161.000000 732.000000 263.000000 52 48 48
162.000000 733.000000 267.000000 47 44 43
170.000000 726.000000 284.000000 86 85 88
173.000000 721.000000 285.000000 59 59 63
179.000000 709.000000 281.000000 109 102 100
181.000000 711.000000 283.000000 74 70 69
176.000000 718.000000 289.000000 77 76 78
191.000000 711.000000 303.000000 90 93 101
177.000000 725.000000 295.000000 108 106 108
182.000000 735.000000 293.000000 102 107 117
188.000000 722.000000 298.000000 124 125 132
189.000000 731.000000 291.000000 76 77 81
160.000000 736.000000 271.000000 53 57 64
173.000000 754.000000 283.000000 95 99 108
174.000000 763.000000 278.000000 142 143 149
185.000000 747.000000 258.000000 98 90 88
182.000000 744.000000 287.000000 107 111 121
189.000000 737.000000 282.000000 68 69 73
183.000000 753.000000 265.000000 65 65 67
178.000000 762.000000 257.000000 71 67 67
178.000000 752.000000 284.000000 110 114 123
174.000000 737.000000 291.000000 134 131 134
181.000000 741.000000 290.000000 116 120 129
199.000000 640.000000 292.000000 91 86 86
193.000000 649.000000 296.000000 58 57 59
200.000000 655.000000 295.000000 80 78 79
194.000000 644.000000 306.000000 44 45 49
203.000000 642.000000 318.000000 64 64 66
204.000000 657.000000 295.000000 92 88 88
207.000000 662.000000 310.000000 53 51 50
209.000000 653.000000 293.000000 90 85 85
215.000000 650.000000 295.000000 80 73 69
210.000000 658.000000 296.000000 100 95 93
223.000000 662.000000 297.000000 109 102 100
205.000000 677.000000 298.000000 95 90 89
207.000000 674.000000 312.000000 57 54 54
206.000000 699.000000 299.000000 81 82 89
217.000000 681.000000 301.000000 64 60 58
220.000000 687.000000 304.000000 102 94 91
238.000000 642.000000 277.000000 72 67 66
239.000000 648.000000 277.000000 99 92 89
243.000000 646.000000 275.000000 114 108 107
254.000000 648.000000 273.000000 103 97 96
246.000000 658.000000 277.000000 91 87 86
241.000000 668.000000 279.000000 71 65 62
247.000000 664.000000 279.000000 79 73 71
255.000000 665.000000 276.000000 88 81 78
226.000000 646.000000 294.000000 127 120 120
233.000000 647.000000 292.000000 129 122 121
236.000000 640.000000 289.000000 114 105 101
231.000000 668.000000 294.000000 111 103 99
235.000000 670.000000 294.000000 101 93 89
247.000000 673.000000 279.000000 91 86 84
240.000000 673.000000 287.000000 79 76 76
254.000000 686.000000 287.000000 53 52 53
246.000000 695.000000 286.000000 68 63 62
250.000000 694.000000 279.000000 54 52 51
248.000000 690.000000 284.000000 66 64 64
232.000000 687.000000 305.000000 87 77 69
231.000000 700.000000 301.000000 74 68 64
232.000000 700.000000 290.000000 63 58 55
227.000000 700.000000 305.000000 125 112 104
231.000000 700.000000 307.000000 116 102 90
239.000000 692.000000 308.000000 98 87 79
237.000000 696.000000 310.000000 99 88 80
237.000000 700.000000 304.000000 96 85 77
245.000000 685.000000 303.000000 78 72 68
249.000000 686.000000 291.000000 54 54 55
251.000000 684.000000 304.000000 82 75 71
247.000000 691.000000 291.000000 78 73 71
244.000000 692.000000 293.000000 74 69 66
254.000000 690.000000 288.000000 69 65 63
250.000000 699.000000 303.000000 80 72 66
242.000000 698.000000 308.000000 112 100 92
195.000000 654.000000 338.000000 83 81 83
193.000000 658.000000 332.000000 119 115 116
194.000000 660.000000 336.000000 77 77 80
209.000000 644.000000 323.000000 41 41 43
222.000000 646.000000 329.000000 55 54 56
208.000000 643.000000 344.000000 84 83 85
209.000000 644.000000 349.000000 69 70 74
208.000000 663.000000 348.000000 84 87 94
220.000000 653.000000 358.000000 93 92 97
214.000000 661.000000 352.000000 113 115 123
193.000000 676.000000 326.000000 114 115 121
194.000000 687.000000 320.000000 139 132 131
211.000000 673.000000 339.000000 71 72 77
226.000000 655.000000 328.000000 61 59 60
233.000000 644.000000 338.000000 74 73 74
237.000000 646.000000 339.000000 76 74 75
229.000000 660.000000 329.000000 80 72 65
227.000000 671.000000 332.000000 59 60 65
234.000000 671.000000 333.000000 84 86 93
245.000000 655.000000 342.000000 64 64 67
242.000000 654.000000 347.000000 38 40 43
242.000000 668.000000 349.000000 109 113 122
244.000000 664.000000 347.000000 83 87 95
229.000000 642.000000 362.000000 45 49 54
234.000000 665.000000 363.000000 127 129 136
242.000000 672.000000 346.000000 137 135 139
225.000000 675.000000 353.000000 79 78 83
228.000000 677.000000 353.000000 75 77 82
196.000000 720.000000 265.000000 61 58 57
193.000000 729.000000 261.000000 86 80 79
198.000000 728.000000 260.000000 87 80 76
202.000000 721.000000 269.000000 70 68 68
206.000000 726.000000 267.000000 100 93 91
205.000000 733.000000 262.000000 89 83 81
202.000000 733.000000 285.000000 98 96 98
205.000000 728.000000 287.000000 90 83 81
206.000000 733.000000 283.000000 109 104 104
216.000000 732.000000 266.000000 97 90 87
209.000000 727.000000 274.000000 64 62 63
211.000000 731.000000 279.000000 69 63 60
223.000000 726.000000 272.000000 98 91 87
216.000000 732.000000 283.000000 141 130 126
223.000000 730.000000 282.000000 106 99 96
205.000000 707.000000 291.000000 126 118 115
207.000000 711.000000 291.000000 140 131 128
200.000000 712.000000 290.000000 122 115 114
193.000000 709.000000 305.000000 95 96 101
194.000000 724.000000 289.000000 75 73 75
217.000000 722.000000 293.000000 131 125 126
199.000000 738.000000 258.000000 91 84 81
202.000000 757.000000 258.000000 121 112 107
206.000000 753.000000 260.000000 122 112 107
202.000000 763.000000 258.000000 120 109 103
200.000000 765.000000 256.000000 119 110 105
209.000000 738.000000 262.000000 130 121 119
218.000000 740.000000 265.000000 103 92 86
216.000000 764.000000 267.000000 73 65 59
228.000000 729.000000 270.000000 104 95 90
233.000000 732.000000 271.000000 81 73 68
238.000000 728.000000 273.000000 93 84 79
247.000000 709.000000 279.000000 116 108 104
250.000000 707.000000 279.000000 109 102 98
241.000000 732.000000 280.000000 95 86 82
243.000000 733.000000 284.000000 93 83 76
249.000000 725.000000 286.000000 94 85 81
255.000000 735.000000 278.000000 60 57 55
224.000000 706.000000 294.000000 137 128 125
229.000000 714.000000 288.000000 107 100 97
225.000000 721.000000 292.000000 131 124 122
227.000000 746.000000 275.000000 109 100 95
230.000000 744.000000 277.000000 76 68 62
234.000000 738.000000 274.000000 90 79 73
239.000000 757.000000 272.000000 72 69 69
245.000000 739.000000 287.000000 92 81 77
252.000000 754.000000 267.000000 100 93 91
69.000000 772.000000 125.000000 85 77 77
71.000000 781.000000 127.000000 88 80 83
72.000000 777.000000 123.000000 138 131 131
92.000000 793.000000 108.000000 116 111 111
87.000000 798.000000 116.000000 103 96 93
115.000000 778.000000 94.000000 101 95 94
123.000000 778.000000 92.000000 103 98 97
121.000000 794.000000 90.000000 95 89 87
99.000000 769.000000 101.000000 94 88 86
103.000000 780.000000 99.000000 98 93 93
106.000000 777.000000 99.000000 83 79 77
105.000000 783.000000 99.000000 94 90 89
108.000000 783.000000 97.000000 102 98 98
98.000000 789.000000 102.000000 113 109 110
102.000000 793.000000 101.000000 113 108 108
119.000000 770.000000 98.000000 102 98 97
123.000000 806.000000 91.000000 120 115 116
125.000000 800.000000 89.000000 117 113 114
103.000000 811.000000 106.000000 128 122 123
103.000000 815.000000 110.000000 108 97 94
109.000000 801.000000 97.000000 100 94 93
111.000000 812.000000 99.000000 113 105 101
122.000000 819.000000 98.000000 138 130 128
125.000000 820.000000 97.000000 107 97 90
122.000000 826.000000 103.000000 111 100 93
119.000000 840.000000 122.000000 118 107 101
125.000000 841.000000 119.000000 128 118 115
62.000000 779.000000 152.000000 152 145 145
64.000000 782.000000 152.000000 155 148 148
67.000000 781.000000 157.000000 143 134 133
80.000000 799.000000 156.000000 161 151 151
78.000000 788.000000 161.000000 125 116 113
90.000000 773.000000 178.000000 106 98 94
95.000000 770.000000 181.000000 134 125 124
83.000000 790.000000 167.000000 129 120 119
81.000000 793.000000 162.000000 153 143 141
77.000000 800.000000 133.000000 133 126 125
80.000000 807.000000 138.000000 142 135 134
83.000000 811.000000 133.000000 143 134 134
82.000000 805.000000 154.000000 143 134 132
85.000000 811.000000 154.000000 112 104 102
89.000000 821.000000 147.000000 148 140 139
93.000000 826.000000 148.000000 131 114 109
110.000000 771.000000 184.000000 123 113 108
97.000000 798.000000 180.000000 156 147 145
118.000000 798.000000 189.000000 157 147 144
97.000000 827.000000 158.000000 130 115 109
96.000000 815.000000 168.000000 147 137 133
107.000000 808.000000 181.000000 141 131 128
104.000000 821.000000 170.000000 134 121 114
111.000000 822.000000 174.000000 121 112 108
108.000000 828.000000 165.000000 160 150 147
111.000000 818.000000 178.000000 116 107 104
113.000000 813.000000 187.000000 138 129 127
119.000000 811.000000 187.000000 135 127 125
117.000000 815.000000 187.000000 151 142 142
124.000000 815.000000 186.000000 137 128 125
115.000000 830.000000 171.000000 126 114 112
113.000000 822.000000 180.000000 166 157 156
119.000000 819.000000 186.000000 165 158 160
115.000000 825.000000 178.000000 179 169 169
121.000000 827.000000 177.000000 169 158 156
120.000000 782.000000 194.000000 160 150 148
119.000000 773.000000 213.000000 106 97 93
117.000000 769.000000 217.000000 106 96 91
121.000000 768.000000 209.000000 63 54 49
123.000000 772.000000 208.000000 54 53 54
120.000000 768.000000 222.000000 87 80 77
125.000000 779.000000 221.000000 81 80 84
123.000000 795.000000 192.000000 153 143 140
121.000000 772.000000 232.000000 66 69 74
101.000000 835.000000 143.000000 122 110 104
109.000000 835.000000 157.000000 143 133 131
111.000000 841.000000 147.000000 159 147 145
113.000000 842.000000 140.000000 142 132 130
120.000000 844.000000 138.000000 135 123 118
122.000000 839.000000 156.000000 131 120 115
123.000000 845.000000 145.000000 125 110 111
115.000000 835.000000 161.000000 154 143 141
125.000000 835.000000 165.000000 131 120 116
127.000000 839.000000 160.000000 131 120 115
188.000000 768.000000 52.000000 89 81 77
186.000000 770.000000 56.000000 84 77 74
187.000000 778.000000 58.000000 121 113 111
133.000000 776.000000 88.000000 112 107 107
137.000000 772.000000 85.000000 118 113 113
132.000000 791.000000 87.000000 124 118 117
135.000000 799.000000 87.000000 113 109 109
138.000000 789.000000 85.000000 100 95 94
137.000000 793.000000 86.000000 124 119 119
146.000000 774.000000 80.000000 135 128 128
153.000000 771.000000 80.000000 102 97 96
157.000000 781.000000 80.000000 107 103 103
145.000000 788.000000 83.000000 114 110 110
151.000000 784.000000 81.000000 134 128 128
144.000000 795.000000 85.000000 107 102 101
133.000000 809.000000 89.000000 129 124 124
141.000000 813.000000 89.000000 130 125 126
131.000000 821.000000 94.000000 132 125 125
153.000000 808.000000 87.000000 103 99 98
148.000000 818.000000 91.000000 124 118 119
163.000000 778.000000 79.000000 97 93 93
175.000000 774.000000 75.000000 69 63 60
160.000000 793.000000 77.000000 88 82 81
160.000000 799.000000 79.000000 98 89 83
171.000000 795.000000 78.000000 80 76 76
166.000000 785.000000 81.000000 73 71 72
180.000000 771.000000 70.000000 69 63 60
182.000000 777.000000 70.000000 82 77 74
182.000000 798.000000 78.000000 91 87 87
191.000000 795.000000 64.000000 73 69 68
175.000000 810.000000 83.000000 79 76 75
170.000000 817.000000 87.000000 48 48 51
175.000000 824.000000 83.000000 39 40 44
189.000000 804.000000 71.000000 89 84 82
191.000000 808.000000 76.000000 86 77 72
179.000000 815.000000 86.000000 74 72 72
185.000000 824.000000 92.000000 48 48 50
130.000000 833.000000 106.000000 138 130 129
140.000000 839.000000 106.000000 99 92 93
133.000000 843.000000 118.000000 137 125 121
128.000000 843.000000 125.000000 111 101 95
142.000000 863.000000 119.000000 66 68 74
153.000000 840.000000 99.000000 48 50 55
145.000000 851.000000 108.000000 138 132 133
145.000000 854.000000 105.000000 142 138 140
149.000000 862.000000 98.000000 159 153 155
142.000000 867.000000 123.000000 68 70 76
151.000000 868.000000 100.000000 181 176 180
154.000000 870.000000 106.000000 80 76 84
147.000000 871.000000 115.000000 68 71 77
144.000000 870.000000 121.000000 60 64 71
148.000000 877.000000 121.000000 81 85 93
175.000000 833.000000 76.000000 45 48 53
163.000000 835.000000 81.000000 38 41 46
160.000000 832.000000 86.000000 43 45 51
160.000000 844.000000 84.000000 56 58 64
160.000000 860.000000 93.000000 43 45 51
168.000000 855.000000 94.000000 44 45 49
183.000000 846.000000 85.000000 69 69 73
186.000000 847.000000 95.000000 41 42 46
190.000000 844.000000 99.000000 111 104 105
191.000000 856.000000 110.000000 98 92 90
191.000000 856.000000 118.000000 160 148 143
164.000000 868.000000 100.000000 190 179 175
162.000000 870.000000 116.000000 70 70 75
166.000000 869.000000 119.000000 65 62 66
165.000000 872.000000 127.000000 52 55 61
197.000000 778.000000 56.000000 78 74 73
202.000000 768.000000 49.000000 139 127 120
199.000000 788.000000 56.000000 111 104 102
208.000000 782.000000 58.000000 79 72 66
212.000000 781.000000 63.000000 65 60 57
210.000000 785.000000 59.000000 98 89 83
200.000000 800.000000 58.000000 109 101 97
215.000000 778.000000 67.000000 69 63 60
218.000000 778.000000 73.000000 54 51 49
221.000000 781.000000 76.000000 64 60 60
220.000000 785.000000 74.000000 78 72 67
197.000000 809.000000 67.000000 162 147 138
194.000000 814.000000 80.000000 84 78 76
204.000000 827.000000 81.000000 134 123 118
209.000000 822.000000 80.000000 107 99 96
220.000000 826.000000 95.000000 88 75 74
218.000000 827.000000 98.000000 88 82 81
228.000000 770.000000 76.000000 80 72 67
234.000000 774.000000 78.000000 123 116 113
233.000000 782.000000 80.000000 107 103 103
236.000000 776.000000 80.000000 124 118 117
233.000000 790.000000 82.000000 130 125 126
241.000000 774.000000 81.000000 123 117 118
247.000000 775.000000 84.000000 100 92 89
226.000000 811.000000 86.000000 65 63 64
232.000000 801.000000 85.000000 123 116 114
235.000000 806.000000 87.000000 117 109 106
254.000000 809.000000 94.000000 99 94 93
253.000000 815.000000 95.000000 128 121 118
243.000000 819.000000 94.000000 135 126 122
240.000000 820.000000 93.000000 130 119 113
239.000000 824.000000 98.000000 144 132 126
237.000000 825.000000 115.000000 139 129 125
250.000000 825.000000 113.000000 127 115 111
253.000000 824.000000 118.000000 147 135 129
248.000000 830.000000 123.000000 124 116 113
197.000000 841.000000 101.000000 125 117 116
202.000000 836.000000 97.000000 57 54 53
201.000000 846.000000 107.000000 85 78 74
194.000000 856.000000 115.000000 145 135 131
196.000000 856.000000 121.000000 161 149 146
206.000000 850.000000 120.000000 164 154 153
201.000000 857.000000 126.000000 176 165 162
242.000000 832.000000 121.000000 125 117 115
130.000000 815.000000 185.000000 130 122 120
133.000000 827.000000 180.000000 84 72 68
138.000000 816.000000 190.000000 99 90 84
129.000000 797.000000 192.000000 166 156 154
132.000000 793.000000 204.000000 131 122 120
131.000000 796.000000 210.000000 51 48 49
137.000000 787.000000 217.000000 63 60 60
139.000000 796.000000 211.000000 105 101 102
144.000000 789.000000 222.000000 145 135 131
134.000000 781.000000 237.000000 78 80 85
129.000000 778.000000 240.000000 94 95 101
137.000000 772.000000 243.000000 85 86 91
137.000000 787.000000 236.000000 72 75 81
148.000000 790.000000 227.000000 105 95 91
151.000000 796.000000 226.000000 130 120 115
157.000000 797.000000 237.000000 66 68 75
148.000000 793.000000 245.000000 72 72 77
150.000000 798.000000 249.000000 71 75 83
137.000000 806.000000 195.000000 135 126 124
139.000000 807.000000 201.000000 90 83 80
140.000000 812.000000 194.000000 86 78 75
132.000000 800.000000 221.000000 48 52 57
131.000000 810.000000 216.000000 52 55 60
144.000000 807.000000 208.000000 100 92 90
146.000000 817.000000 205.000000 117 107 101
147.000000 828.000000 200.000000 164 154 153
153.000000 828.000000 204.000000 148 139 138
158.000000 818.000000 214.000000 141 130 125
159.000000 804.000000 248.000000 42 44 49
161.000000 797.000000 235.000000 120 115 116
163.000000 799.000000 239.000000 64 65 73
175.000000 791.000000 249.000000 69 66 66
173.000000 791.000000 255.000000 78 80 85
172.000000 799.000000 249.000000 67 67 70
179.000000 773.000000 253.000000 96 91 91
179.000000 778.000000 248.000000 93 87 86
189.000000 798.000000 249.000000 81 76 78
161.000000 807.000000 222.000000 160 152 151
171.000000 821.000000 215.000000 90 81 78
164.000000 803.000000 230.000000 161 152 151
161.000000 806.000000 250.000000 48 50 54
162.000000 805.000000 253.000000 81 86 95
166.000000 807.000000 249.000000 52 52 57
189.000000 804.000000 247.000000 127 116 111
182.000000 816.000000 230.000000 84 74 73
184.000000 816.000000 236.000000 126 114 109
191.000000 825.000000 236.000000 121 109 102
136.000000 859.000000 134.000000 77 70 71
131.000000 848.000000 145.000000 73 68 64
131.000000 857.000000 154.000000 108 97 91
129.000000 835.000000 170.000000 128 116 115
131.000000 838.000000 168.000000 104 92 87
134.000000 840.000000 184.000000 115 105 101
151.000000 856.000000 182.000000 163 150 145
140.000000 873.000000 138.000000 59 62 67
141.000000 869.000000 149.000000 172 156 149
138.000000 866.000000 154.000000 134 122 115
146.000000 871.000000 148.000000 109 89 87
148.000000 873.000000 146.000000 79 76 77
155.000000 873.000000 159.000000 126 114 107
162.000000 862.000000 176.000000 141 129 124
163.000000 875.000000 130.000000 64 66 71
172.000000 871.000000 135.000000 147 137 134
165.000000 874.000000 145.000000 115 83 91
161.000000 872.000000 157.000000 131 123 122
168.000000 873.000000 147.000000 185 174 171
175.000000 877.000000 151.000000 175 161 155
176.000000 870.000000 141.000000 94 87 86
182.000000 875.000000 142.000000 106 96 90
184.000000 869.000000 139.000000 74 65 64
180.000000 880.000000 153.000000 130 121 117
166.000000 868.000000 166.000000 109 98 94
173.000000 874.000000 173.000000 124 113 108
175.000000 880.000000 170.000000 123 113 108
177.000000 880.000000 163.000000 129 116 115
178.000000 885.000000 172.000000 115 104 100
191.000000 889.000000 162.000000 113 95 91
176.000000 882.000000 180.000000 123 99 95
177.000000 888.000000 183.000000 135 104 99
163.000000 835.000000 204.000000 148 138 135
162.000000 844.000000 199.000000 89 79 73
170.000000 838.000000 206.000000 89 79 73
173.000000 843.000000 204.000000 82 73 71
174.000000 850.000000 199.000000 110 100 95
173.000000 854.000000 193.000000 111 100 96
175.000000 858.000000 197.000000 111 99 93
179.000000 835.000000 217.000000 118 106 99
179.000000 870.000000 196.000000 131 95 92
182.000000 870.000000 202.000000 133 99 94
181.000000 876.000000 204.000000 132 103 94
184.000000 865.000000 206.000000 136 103 97
185.000000 878.000000 212.000000 128 105 95
188.000000 875.000000 214.000000 125 107 98
190.000000 877.000000 216.000000 119 105 95
189.000000 882.000000 222.000000 110 98 90
186.000000 888.000000 222.000000 113 101 93
194.000000 769.000000 254.000000 122 113 109
199.000000 773.000000 255.000000 119 109 104
205.000000 804.000000 251.000000 98 88 82
207.000000 808.000000 245.000000 63 57 54
201.000000 831.000000 225.000000 71 55 52
203.000000 829.000000 227.000000 107 93 89
198.000000 820.000000 240.000000 66 57 54
219.000000 827.000000 231.000000 89 82 79
222.000000 822.000000 252.000000 56 53 53
220.000000 824.000000 242.000000 60 58 60
241.000000 795.000000 254.000000 80 73 69
255.000000 795.000000 250.000000 113 106 104
226.000000 801.000000 254.000000 118 109 106
232.000000 803.000000 252.000000 100 93 91
238.000000 802.000000 251.000000 91 84 82
230.000000 820.000000 240.000000 84 80 81
245.000000 811.000000 249.000000 73 71 72
253.000000 806.000000 245.000000 90 85 84
251.000000 810.000000 247.000000 69 65 64
242.000000 821.000000 245.000000 51 48 47
240.000000 821.000000 249.000000 46 45 45
240.000000 823.000000 252.000000 43 44 45
194.000000 875.000000 142.000000 132 123 120
214.000000 865.000000 142.000000 90 83 85
198.000000 894.000000 164.000000 108 85 82
217.000000 894.000000 165.000000 100 81 75
238.000000 858.000000 138.000000 77 72 72
253.000000 844.000000 133.000000 144 137 136
242.000000 855.000000 138.000000 67 64 66
255.000000 850.000000 136.000000 56 54 56
249.000000 863.000000 145.000000 130 119 115
230.000000 867.000000 143.000000 134 124 121
251.000000 865.000000 148.000000 130 117 110
249.000000 866.000000 155.000000 135 120 120
229.000000 885.000000 163.000000 118 91 87
226.000000 895.000000 166.000000 102 80 76
253.000000 877.000000 186.000000 131 98 94
249.000000 881.000000 167.000000 133 119 115
206.000000 836.000000 212.000000 103 76 70
200.000000 849.000000 214.000000 102 78 72
203.000000 858.000000 219.000000 94 78 70
207.000000 856.000000 219.000000 93 74 65
205.000000 862.000000 222.000000 97 83 74
211.000000 847.000000 214.000000 129 98 92
219.000000 845.000000 219.000000 117 85 79
207.000000 834.000000 247.000000 75 69 67
212.000000 835.000000 224.000000 107 70 68
220.000000 839.000000 231.000000 79 72 69
222.000000 840.000000 227.000000 89 78 77
219.000000 862.000000 240.000000 64 57 53
221.000000 859.000000 244.000000 85 78 75
197.000000 875.000000 223.000000 103 92 85
201.000000 867.000000 222.000000 122 107 98
196.000000 878.000000 231.000000 102 90 82
201.000000 873.000000 232.000000 104 92 83
206.000000 880.000000 246.000000 119 104 94
215.000000 865.000000 228.000000 54 49 45
213.000000 865.000000 234.000000 61 55 50
220.000000 864.000000 226.000000 52 46 43
219.000000 864.000000 234.000000 57 51 46
215.000000 883.000000 249.000000 146 117 111
214.000000 895.000000 253.000000 141 123 112
224.000000 846.000000 223.000000 69 55 50
226.000000 861.000000 223.000000 87 76 70
255.000000 875.000000 196.000000 114 94 86
247.000000 866.000000 221.000000 113 97 95
240.000000 872.000000 222.000000 57 50 47
249.000000 891.000000 201.000000 87 70 64
225.000000 889.000000 254.000000 120 107 101
233.000000 888.000000 253.000000 115 101 96
243.000000 870.000000 228.000000 53 48 50
245.000000 870.000000 239.000000 66 65 67
247.000000 885.000000 232.000000 114 94 80
247.000000 894.000000 239.000000 125 106 93
240.000000 887.000000 244.000000 81 66 62
246.000000 890.000000 240.000000 104 91 83
184.000000 901.000000 175.000000 140 116 113
190.000000 905.000000 171.000000 113 91 87
189.000000 911.000000 174.000000 111 92 87
181.000000 901.000000 181.000000 133 107 101
179.000000 902.000000 190.000000 118 93 88
182.000000 905.000000 185.000000 131 109 102
182.000000 908.000000 188.000000 116 96 91
184.000000 946.000000 159.000000 84 81 81
188.000000 947.000000 155.000000 100 95 94
189.000000 958.000000 155.000000 96 88 83
166.000000 940.000000 183.000000 70 69 71
173.000000 932.000000 186.000000 82 80 81
172.000000 933.000000 190.000000 75 69 67
169.000000 939.000000 182.000000 60 62 66
175.000000 937.000000 180.000000 64 64 67
175.000000 957.000000 162.000000 99 90 85
167.000000 959.000000 176.000000 139 129 125
186.000000 935.000000 172.000000 56 56 59
188.000000 937.000000 170.000000 54 55 57
176.000000 945.000000 166.000000 74 73 74
184.000000 945.000000 163.000000 54 55 58
151.000000 951.000000 205.000000 131 121 116
151.000000 953.000000 192.000000 128 121 119
151.000000 955.000000 198.000000 129 119 115
152.000000 958.000000 212.000000 133 124 120
154.000000 959.000000 216.000000 122 112 107
175.000000 907.000000 213.000000 91 84 80
178.000000 899.000000 206.000000 119 95 90
180.000000 910.000000 194.000000 101 87 83
181.000000 898.000000 218.000000 109 99 93
177.000000 905.000000 215.000000 110 101 95
180.000000 910.000000 221.000000 131 108 98
179.000000 916.000000 218.000000 135 110 103
179.000000 919.000000 223.000000 109 97 90
182.000000 900.000000 225.000000 104 94 88
182.000000 907.000000 226.000000 123 104 93
182.000000 910.000000 228.000000 134 111 100
183.000000 904.000000 232.000000 127 108 98
185.000000 902.000000 236.000000 127 108 98
191.000000 908.000000 249.000000 100 90 84
179.000000 922.000000 229.000000 128 99 90
186.000000 912.000000 241.000000 133 113 105
189.000000 915.000000 250.000000 101 90 83
167.000000 941.000000 196.000000 52 51 52
164.000000 943.000000 205.000000 46 45 46
173.000000 937.000000 209.000000 68 61 57
169.000000 943.000000 223.000000 131 92 87
168.000000 945.000000 206.000000 61 56 54
168.000000 945.000000 216.000000 60 53 50
172.000000 936.000000 225.000000 130 93 87
163.000000 958.000000 224.000000 52 51 52
167.000000 955.000000 236.000000 44 45 49
171.000000 951.000000 240.000000 44 44 45
175.000000 949.000000 241.000000 46 45 47
173.000000 946.000000 251.000000 67 67 70
177.000000 943.000000 231.000000 126 99 92
182.000000 943.000000 246.000000 59 56 57
177.000000 947.000000 247.000000 49 52 57
177.000000 944.000000 255.000000 69 68 69
157.000000 964.000000 186.000000 149 138 132
188.000000 963.000000 156.000000 97 88 83
163.000000 963.000000 182.000000 140 130 126
163.000000 967.000000 186.000000 141 131 128
167.000000 975.000000 183.000000 152 141 137
165.000000 969.000000 184.000000 145 135 131
165.000000 973.000000 185.000000 148 138 134
170.000000 973.000000 176.000000 147 137 132
170.000000 980.000000 182.000000 152 142 138
173.000000 980.000000 177.000000 149 138 133
175.000000 986.000000 179.000000 157 145 141
170.000000 984.000000 186.000000 154 145 141
171.000000 990.000000 190.000000 158 148 145
183.000000 966.000000 161.000000 111 102 97
179.000000 981.000000 172.000000 146 134 128
179.000000 996.000000 186.000000 169 156 151
191.000000 1001.000000 178.000000 112 103 98
190.000000 1007.000000 187.000000 150 137 130
154.000000 962.000000 192.000000 149 139 135
154.000000 965.000000 198.000000 122 113 109
154.000000 969.000000 200.000000 158 147 141
155.000000 971.000000 204.000000 151 141 136
154.000000 963.000000 218.000000 106 95 88
155.000000 969.000000 217.000000 128 117 113
156.000000 969.000000 221.000000 128 118 113
157.000000 975.000000 216.000000 103 96 93
158.000000 973.000000 223.000000 133 122 118
156.000000 965.000000 229.000000 133 124 120
159.000000 962.000000 234.000000 108 101 98
159.000000 961.000000 238.000000 123 114 109
157.000000 966.000000 233.000000 149 137 131
156.000000 969.000000 227.000000 150 139 134
162.000000 976.000000 197.000000 134 128 128
163.000000 980.000000 199.000000 151 144 143
160.000000 978.000000 203.000000 151 139 133
168.000000 989.000000 196.000000 164 154 150
160.000000 982.000000 219.000000 171 159 154
163.000000 984.000000 215.000000 161 147 140
167.000000 991.000000 214.000000 157 146 141
164.000000 987.000000 216.000000 160 146 140
165.000000 967.000000 246.000000 140 128 122
165.000000 963.000000 248.000000 133 123 117
167.000000 969.000000 252.000000 110 101 97
169.000000 972.000000 253.000000 143 131 125
160.000000 976.000000 234.000000 106 99 97
163.000000 982.000000 235.000000 152 131 134
165.000000 985.000000 231.000000 84 86 96
169.000000 976.000000 249.000000 147 127 122
172.000000 978.000000 253.000000 143 145 152
171.000000 987.000000 243.000000 165 164 178
170.000000 988.000000 240.000000 159 157 171
173.000000 991.000000 245.000000 176 179 190
173.000000 987.000000 249.000000 72 67 88
171.000000 992.000000 194.000000 167 156 152
170.000000 994.000000 201.000000 166 155 151
175.000000 1001.000000 203.000000 175 162 158
187.000000 1011.000000 213.000000 191 176 170
190.000000 1012.000000 208.000000 190 174 167
185.000000 1010.000000 216.000000 191 176 169
183.000000 1007.000000 230.000000 160 148 144
188.000000 1006.000000 241.000000 184 168 159
190.000000 1005.000000 246.000000 188 170 161
193.000000 902.000000 168.000000 111 90 86
199.000000 914.000000 172.000000 95 82 75
207.000000 913.000000 170.000000 89 77 70
205.000000 925.000000 172.000000 51 51 54
208.000000 898.000000 165.000000 103 84 79
223.000000 908.000000 168.000000 81 69 63
214.000000 917.000000 170.000000 76 69 65
211.000000 923.000000 171.000000 52 52 54
194.000000 946.000000 154.000000 92 88 87
198.000000 946.000000 156.000000 54 52 53
203.000000 945.000000 152.000000 78 74 73
219.000000 942.000000 152.000000 60 56 56
196.000000 930.000000 174.000000 43 46 50
199.000000 933.000000 173.000000 39 44 50
206.000000 944.000000 163.000000 63 62 63
214.000000 930.000000 167.000000 41 42 46
227.000000 911.000000 171.000000 63 58 55
232.000000 899.000000 171.000000 103 84 77
233.000000 907.000000 174.000000 76 67 62
229.000000 924.000000 165.000000 63 60 59
232.000000 914.000000 172.000000 52 50 50
248.000000 904.000000 188.000000 95 85 79
255.000000 923.000000 191.000000 110 90 75
229.000000 940.000000 151.000000 80 77 77
226.000000 941.000000 154.000000 55 54 55
228.000000 941.000000 158.000000 37 39 46
238.000000 943.000000 148.000000 102 97 95
236.000000 937.000000 155.000000 62 60 61
229.000000 950.000000 149.000000 123 114 110
233.000000 948.000000 149.000000 111 105 102
247.000000 935.000000 157.000000 85 80 78
246.000000 936.000000 154.000000 94 89 86
250.000000 936.000000 159.000000 93 89 87
249.000000 944.000000 151.000000 121 112 108
249.000000 949.000000 153.000000 91 86 84
251.000000 956.000000 156.000000 87 80 76
225.000000 938.000000 162.000000 53 52 53
238.000000 934.000000 174.000000 48 47 48
233.000000 939.000000 162.000000 37 40 44
238.000000 937.000000 160.000000 42 43 46
246.000000 936.000000 164.000000 67 64 64
244.000000 936.000000 175.000000 55 50 49
250.000000 928.000000 182.000000 66 55 48
217.000000 898.000000 255.000000 146 124 114
252.000000 910.000000 199.000000 89 76 63
255.000000 909.000000 206.000000 88 76 66
254.000000 912.000000 204.000000 88 75 65
250.000000 908.000000 247.000000 138 117 103
