ply
format ascii 1.0
element vertex 1108
property float x
property float y
property float z
property uchar red
property uchar green
property uchar blue
end_header
258.000000 525.000000 263.000000 149 143 145
275.000000 532.000000 263.000000 114 105 102
281.000000 530.000000 263.000000 137 127 124
287.000000 540.000000 256.000000 162 158 161
260.000000 634.000000 269.000000 113 106 104
263.000000 642.000000 268.000000 119 111 108
262.000000 664.000000 269.000000 99 93 91
264.000000 658.000000 267.000000 105 98 94
286.000000 668.000000 259.000000 78 70 65
269.000000 684.000000 269.000000 85 81 81
271.000000 691.000000 282.000000 68 65 65
272.000000 676.000000 266.000000 105 99 96
274.000000 683.000000 267.000000 97 93 93
287.000000 684.000000 261.000000 110 105 105
277.000000 689.000000 268.000000 63 60 59
275.000000 698.000000 273.000000 74 71 71
287.000000 698.000000 285.000000 77 71 69
265.000000 689.000000 306.000000 110 103 101
279.000000 690.000000 295.000000 91 86 86
296.000000 695.000000 257.000000 95 90 90
310.000000 699.000000 260.000000 60 59 60
305.000000 703.000000 289.000000 65 60 57
268.000000 716.000000 282.000000 64 60 59
272.000000 709.000000 280.000000 67 64 63
261.000000 750.000000 266.000000 58 51 47
272.000000 749.000000 264.000000 48 46 45
277.000000 749.000000 265.000000 49 51 56
293.000000 714.000000 282.000000 47 44 43
319.000000 711.000000 264.000000 86 78 73
313.000000 717.000000 264.000000 47 41 41
306.000000 711.000000 276.000000 80 75 74
310.000000 734.000000 283.000000 101 97 97
295.000000 704.000000 292.000000 64 57 53
300.000000 705.000000 291.000000 69 64 61
309.000000 733.000000 291.000000 100 96 96
316.000000 727.000000 296.000000 96 92 91
292.000000 741.000000 259.000000 41 41 43
317.000000 739.000000 262.000000 95 92 92
303.000000 742.000000 318.000000 79 75 74
296.000000 754.000000 314.000000 49 47 47
281.000000 749.000000 340.000000 115 104 97
283.000000 750.000000 348.000000 127 114 106
274.000000 764.000000 332.000000 121 110 103
286.000000 761.000000 321.000000 84 76 70
273.000000 766.000000 337.000000 132 119 111
319.000000 716.000000 339.000000 85 80 78
308.000000 728.000000 326.000000 88 82 80
302.000000 721.000000 355.000000 107 105 107
301.000000 726.000000 368.000000 120 118 121
313.000000 734.000000 378.000000 154 150 154
302.000000 739.000000 324.000000 77 72 70
298.000000 740.000000 367.000000 115 96 90
301.000000 765.000000 363.000000 161 135 122
306.000000 740.000000 379.000000 159 154 157
311.000000 756.000000 378.000000 184 177 179
327.000000 729.000000 285.000000 101 97 97
349.000000 722.000000 297.000000 116 114 116
360.000000 730.000000 301.000000 128 124 125
360.000000 726.000000 318.000000 103 97 95
360.000000 749.000000 266.000000 76 70 66
359.000000 740.000000 274.000000 115 110 108
365.000000 748.000000 280.000000 102 95 92
360.000000 754.000000 262.000000 91 84 80
361.000000 762.000000 261.000000 123 117 115
366.000000 736.000000 297.000000 80 76 75
370.000000 738.000000 298.000000 77 74 74
372.000000 750.000000 293.000000 74 64 55
369.000000 737.000000 312.000000 107 99 96
331.000000 711.000000 363.000000 104 100 99
335.000000 709.000000 364.000000 98 94 95
338.000000 731.000000 382.000000 141 132 130
341.000000 751.000000 378.000000 97 87 80
349.000000 748.000000 374.000000 164 153 149
342.000000 757.000000 372.000000 140 129 126
365.000000 732.000000 324.000000 127 121 120
365.000000 730.000000 332.000000 126 120 120
362.000000 724.000000 350.000000 112 105 104
364.000000 728.000000 337.000000 92 84 80
370.000000 746.000000 331.000000 116 107 101
374.000000 755.000000 326.000000 122 114 112
373.000000 765.000000 332.000000 114 105 101
375.000000 757.000000 351.000000 115 106 102
364.000000 746.000000 364.000000 142 132 128
369.000000 748.000000 360.000000 141 130 125
260.000000 775.000000 88.000000 104 98 97
275.000000 779.000000 93.000000 109 103 101
283.000000 780.000000 97.000000 107 101 100
257.000000 822.000000 103.000000 131 116 106
283.000000 812.000000 107.000000 77 71 69
277.000000 817.000000 107.000000 125 113 106
286.000000 816.000000 110.000000 134 124 118
301.000000 793.000000 112.000000 127 119 117
312.000000 779.000000 115.000000 104 96 92
316.000000 786.000000 123.000000 115 108 106
298.000000 816.000000 121.000000 97 87 79
320.000000 802.000000 127.000000 116 105 100
293.000000 831.000000 131.000000 65 59 60
301.000000 826.000000 131.000000 61 55 55
315.000000 801.000000 130.000000 79 75 77
308.000000 823.000000 131.000000 96 90 89
313.000000 830.000000 151.000000 141 130 127
317.000000 827.000000 154.000000 126 116 111
262.000000 800.000000 251.000000 128 121 120
263.000000 827.000000 245.000000 92 86 84
269.000000 831.000000 255.000000 66 61 59
268.000000 840.000000 135.000000 62 60 61
270.000000 857.000000 145.000000 153 138 131
283.000000 838.000000 130.000000 72 64 65
287.000000 834.000000 130.000000 56 54 55
286.000000 850.000000 146.000000 129 119 117
269.000000 861.000000 162.000000 163 153 150
262.000000 873.000000 180.000000 119 109 107
305.000000 833.000000 136.000000 132 121 117
304.000000 842.000000 158.000000 150 133 122
316.000000 833.000000 159.000000 98 92 90
293.000000 857.000000 170.000000 143 129 122
296.000000 853.000000 167.000000 157 144 140
309.000000 841.000000 175.000000 136 120 116
259.000000 863.000000 220.000000 116 108 104
264.000000 859.000000 233.000000 113 104 101
278.000000 857.000000 229.000000 152 144 143
280.000000 854.000000 237.000000 131 122 120
256.000000 895.000000 216.000000 75 66 59
276.000000 876.000000 201.000000 125 117 113
283.000000 875.000000 196.000000 140 127 120
293.000000 848.000000 215.000000 80 70 68
317.000000 841.000000 195.000000 155 142 136
319.000000 842.000000 203.000000 155 143 138
309.000000 848.000000 197.000000 100 95 94
289.000000 841.000000 234.000000 82 68 66
299.000000 834.000000 245.000000 138 127 122
306.000000 842.000000 237.000000 141 131 127
314.000000 843.000000 231.000000 115 100 92
318.000000 842.000000 228.000000 114 100 92
305.000000 838.000000 242.000000 133 121 119
291.000000 870.000000 199.000000 138 123 112
295.000000 868.000000 206.000000 158 141 130
320.000000 771.000000 137.000000 109 99 93
324.000000 794.000000 134.000000 116 108 105
322.000000 787.000000 145.000000 100 92 86
323.000000 798.000000 148.000000 122 111 101
332.000000 775.000000 161.000000 98 90 86
334.000000 785.000000 168.000000 107 97 91
326.000000 803.000000 155.000000 123 112 105
323.000000 812.000000 154.000000 124 117 116
323.000000 825.000000 168.000000 147 134 128
324.000000 830.000000 175.000000 125 115 110
337.000000 801.000000 183.000000 100 92 87
339.000000 816.000000 189.000000 108 100 96
338.000000 768.000000 193.000000 97 90 88
338.000000 776.000000 193.000000 95 86 79
349.000000 780.000000 221.000000 109 103 101
348.000000 796.000000 211.000000 114 107 104
350.000000 768.000000 231.000000 96 89 85
342.000000 811.000000 195.000000 116 109 107
345.000000 810.000000 203.000000 102 94 89
345.000000 814.000000 206.000000 95 84 76
338.000000 822.000000 192.000000 105 95 88
338.000000 825.000000 197.000000 145 134 130
349.000000 816.000000 224.000000 116 102 93
347.000000 819.000000 245.000000 168 155 148
344.000000 824.000000 242.000000 162 148 142
360.000000 772.000000 255.000000 95 88 84
360.000000 790.000000 245.000000 98 91 89
328.000000 837.000000 201.000000 148 137 132
322.000000 844.000000 212.000000 170 157 152
322.000000 840.000000 231.000000 159 145 138
328.000000 837.000000 239.000000 127 111 102
337.000000 834.000000 227.000000 131 120 115
257.000000 948.000000 159.000000 109 100 92
256.000000 937.000000 187.000000 115 91 78
260.000000 951.000000 167.000000 106 96 90
263.000000 956.000000 171.000000 101 91 84
262.000000 953.000000 183.000000 37 35 36
271.000000 956.000000 187.000000 94 87 83
256.000000 902.000000 215.000000 99 86 76
256.000000 898.000000 223.000000 79 71 66
259.000000 904.000000 221.000000 82 74 69
264.000000 922.000000 216.000000 60 55 52
269.000000 923.000000 220.000000 76 70 66
268.000000 946.000000 202.000000 45 46 49
278.000000 943.000000 214.000000 80 75 73
286.000000 947.000000 211.000000 109 102 100
263.000000 930.000000 249.000000 66 60 56
265.000000 931.000000 240.000000 80 70 62
282.000000 940.000000 250.000000 84 84 87
281.000000 954.000000 247.000000 137 126 121
264.000000 992.000000 191.000000 132 120 112
278.000000 978.000000 212.000000 113 100 90
279.000000 972.000000 247.000000 150 137 129
279.000000 982.000000 227.000000 130 116 107
259.000000 1000.000000 194.000000 162 149 143
271.000000 790.000000 311.000000 66 61 60
261.000000 826.000000 259.000000 62 57 56
279.000000 810.000000 257.000000 136 129 129
286.000000 800.000000 266.000000 110 103 102
273.000000 831.000000 282.000000 104 98 96
258.000000 816.000000 288.000000 49 46 48
289.000000 769.000000 281.000000 102 96 95
299.000000 799.000000 290.000000 88 76 72
294.000000 801.000000 269.000000 77 74 74
300.000000 823.000000 257.000000 144 133 130
304.000000 805.000000 286.000000 107 100 98
314.000000 815.000000 279.000000 150 138 136
292.000000 813.000000 317.000000 172 143 125
310.000000 809.000000 291.000000 134 119 112
316.000000 809.000000 294.000000 130 125 130
259.000000 799.000000 324.000000 80 72 70
265.000000 787.000000 331.000000 145 129 119
268.000000 785.000000 336.000000 149 133 122
286.000000 782.000000 348.000000 177 149 136
280.000000 797.000000 338.000000 183 156 142
276.000000 808.000000 331.000000 166 134 122
273.000000 829.000000 320.000000 107 117 138
289.000000 789.000000 347.000000 170 145 130
268.000000 847.000000 267.000000 135 127 125
272.000000 839.000000 256.000000 118 112 112
267.000000 840.000000 300.000000 169 164 168
267.000000 834.000000 307.000000 155 122 112
324.000000 797.000000 307.000000 173 157 158
333.000000 792.000000 315.000000 166 156 153
346.000000 791.000000 310.000000 165 156 155
335.000000 813.000000 282.000000 173 168 177
329.000000 823.000000 263.000000 115 103 99
349.000000 809.000000 275.000000 156 144 143
326.000000 802.000000 304.000000 173 162 157
366.000000 780.000000 274.000000 151 138 132
362.000000 787.000000 269.000000 120 110 105
357.000000 794.000000 277.000000 109 100 95
352.000000 809.000000 269.000000 170 159 158
330.000000 794.000000 332.000000 220 210 211
326.000000 768.000000 374.000000 205 198 202
341.000000 785.000000 354.000000 223 216 219
355.000000 788.000000 334.000000 176 166 162
357.000000 788.000000 328.000000 176 165 161
369.000000 779.000000 335.000000 130 119 114
270.000000 934.000000 265.000000 88 85 85
269.000000 938.000000 275.000000 86 81 78
264.000000 940.000000 282.000000 100 95 96
264.000000 949.000000 283.000000 143 127 116
275.000000 955.000000 264.000000 115 111 111
266.000000 952.000000 292.000000 104 100 100
272.000000 954.000000 303.000000 93 91 91
260.000000 988.000000 264.000000 159 150 149
277.000000 966.000000 258.000000 159 144 135
273.000000 964.000000 266.000000 151 140 134
259.000000 971.000000 303.000000 122 113 115
261.000000 968.000000 306.000000 222 226 239
267.000000 962.000000 308.000000 229 233 248
162.000000 9.000000 123.000000 77 74 73
178.000000 12.000000 96.000000 83 78 77
180.000000 9.000000 113.000000 80 75 73
186.000000 35.000000 82.000000 98 93 93
185.000000 61.000000 76.000000 72 69 68
173.000000 54.000000 98.000000 95 90 90
170.000000 63.000000 124.000000 121 116 116
168.000000 69.000000 111.000000 101 96 96
169.000000 79.000000 118.000000 92 84 79
171.000000 77.000000 126.000000 110 104 103
172.000000 84.000000 105.000000 123 118 120
180.000000 88.000000 120.000000 85 80 79
169.000000 103.000000 103.000000 82 77 76
171.000000 105.000000 121.000000 130 124 124
167.000000 121.000000 117.000000 110 106 107
206.000000 12.000000 61.000000 61 57 56
209.000000 23.000000 57.000000 94 87 85
194.000000 9.000000 95.000000 86 82 81
216.000000 9.000000 78.000000 52 49 49
212.000000 9.000000 96.000000 67 62 60
215.000000 25.000000 120.000000 59 56 54
199.000000 47.000000 69.000000 77 75 76
205.000000 45.000000 67.000000 80 78 78
228.000000 10.000000 73.000000 47 45 45
225.000000 10.000000 95.000000 68 63 61
239.000000 31.000000 78.000000 98 90 86
235.000000 30.000000 93.000000 77 71 68
241.000000 23.000000 82.000000 100 91 85
234.000000 41.000000 73.000000 113 105 102
239.000000 63.000000 82.000000 96 88 84
224.000000 36.000000 113.000000 78 74 72
209.000000 85.000000 63.000000 117 114 116
213.000000 90.000000 64.000000 117 112 114
205.000000 122.000000 70.000000 72 68 67
226.000000 82.000000 69.000000 103 99 100
240.000000 71.000000 107.000000 77 73 72
242.000000 76.000000 100.000000 86 80 77
240.000000 75.000000 109.000000 74 70 69
241.000000 95.000000 103.000000 68 61 57
227.000000 107.000000 67.000000 108 105 106
235.000000 126.000000 96.000000 98 92 89
235.000000 118.000000 123.000000 79 75 74
139.000000 9.000000 159.000000 84 79 77
151.000000 9.000000 133.000000 79 76 76
157.000000 9.000000 155.000000 82 78 77
137.000000 8.000000 166.000000 86 81 80
141.000000 8.000000 169.000000 86 81 79
155.000000 9.000000 162.000000 92 86 84
144.000000 8.000000 190.000000 74 68 64
155.000000 9.000000 188.000000 103 94 90
152.000000 42.000000 155.000000 120 110 105
145.000000 35.000000 171.000000 159 147 142
157.000000 39.000000 165.000000 153 141 135
166.000000 8.000000 131.000000 78 74 74
175.000000 9.000000 134.000000 86 81 80
163.000000 9.000000 157.000000 105 98 94
170.000000 10.000000 159.000000 117 108 104
181.000000 10.000000 134.000000 93 87 85
177.000000 10.000000 152.000000 114 106 102
161.000000 9.000000 164.000000 111 102 98
167.000000 9.000000 166.000000 118 108 104
161.000000 9.000000 172.000000 116 106 101
186.000000 15.000000 179.000000 123 113 109
184.000000 47.000000 159.000000 121 109 101
136.000000 29.000000 209.000000 140 130 125
145.000000 9.000000 204.000000 81 73 69
165.000000 29.000000 199.000000 163 148 140
174.000000 67.000000 128.000000 115 110 110
203.000000 40.000000 153.000000 124 115 112
218.000000 57.000000 137.000000 92 87 86
193.000000 92.000000 147.000000 108 103 102
221.000000 108.000000 147.000000 75 72 71
203.000000 115.000000 160.000000 104 99 98
225.000000 70.000000 133.000000 85 81 79
232.000000 111.000000 130.000000 86 83 82
169.000000 177.000000 86.000000 116 112 113
183.000000 185.000000 71.000000 104 99 99
161.000000 160.000000 105.000000 105 97 93
159.000000 239.000000 103.000000 85 79 76
158.000000 245.000000 106.000000 122 118 120
148.000000 255.000000 124.000000 118 115 117
164.000000 192.000000 110.000000 119 113 113
161.000000 210.000000 103.000000 109 104 103
161.000000 214.000000 100.000000 127 121 120
175.000000 227.000000 78.000000 114 111 114
187.000000 241.000000 77.000000 105 99 99
192.000000 141.000000 71.000000 86 84 84
200.000000 141.000000 67.000000 86 82 81
213.000000 133.000000 68.000000 109 104 104
220.000000 158.000000 76.000000 113 110 112
238.000000 152.000000 97.000000 74 65 57
237.000000 181.000000 111.000000 117 111 110
195.000000 192.000000 69.000000 109 106 108
204.000000 221.000000 73.000000 123 118 119
200.000000 239.000000 77.000000 115 111 112
195.000000 241.000000 78.000000 117 114 115
234.000000 214.000000 108.000000 109 103 102
232.000000 220.000000 101.000000 95 88 84
231.000000 222.000000 127.000000 80 73 70
234.000000 218.000000 121.000000 107 101 99
231.000000 228.000000 112.000000 107 101 99
230.000000 235.000000 117.000000 102 95 92
175.000000 143.000000 137.000000 72 68 66
174.000000 176.000000 140.000000 126 119 118
188.000000 170.000000 149.000000 98 89 84
154.000000 222.000000 147.000000 96 90 87
154.000000 225.000000 151.000000 118 114 114
145.000000 241.000000 145.000000 114 109 108
161.000000 210.000000 141.000000 108 105 106
165.000000 213.000000 149.000000 102 98 99
164.000000 218.000000 157.000000 104 102 105
190.000000 199.000000 161.000000 89 85 84
173.000000 228.000000 177.000000 98 93 93
188.000000 254.000000 194.000000 81 75 73
199.000000 135.000000 159.000000 99 91 88
204.000000 149.000000 148.000000 86 80 77
209.000000 150.000000 167.000000 114 108 107
214.000000 151.000000 169.000000 106 100 99
217.000000 162.000000 162.000000 93 86 83
234.000000 135.000000 128.000000 98 93 92
225.000000 158.000000 160.000000 92 88 86
232.000000 176.000000 130.000000 108 103 102
217.000000 206.000000 168.000000 77 74 73
202.000000 229.000000 181.000000 105 101 102
195.000000 245.000000 190.000000 89 83 80
222.000000 249.000000 162.000000 73 63 54
236.000000 198.000000 147.000000 108 102 101
224.000000 246.000000 167.000000 73 64 55
253.000000 248.000000 270.000000 83 75 68
253.000000 250.000000 279.000000 128 123 123
253.000000 254.000000 272.000000 96 87 81
127.000000 307.000000 155.000000 88 77 67
126.000000 321.000000 154.000000 95 81 68
123.000000 344.000000 139.000000 109 105 107
118.000000 337.000000 151.000000 96 87 82
126.000000 379.000000 145.000000 106 103 104
115.000000 420.000000 120.000000 96 88 84
115.000000 422.000000 126.000000 134 130 131
117.000000 504.000000 125.000000 114 112 114
121.000000 497.000000 119.000000 120 117 118
111.000000 388.000000 155.000000 139 135 136
110.000000 415.000000 155.000000 79 73 70
121.000000 396.000000 138.000000 97 92 90
107.000000 405.000000 172.000000 141 136 137
118.000000 423.000000 149.000000 91 86 84
114.000000 430.000000 152.000000 111 106 107
115.000000 443.000000 149.000000 111 106 105
111.000000 434.000000 177.000000 132 127 128
114.000000 478.000000 128.000000 124 118 118
108.000000 454.000000 163.000000 130 126 128
115.000000 478.000000 183.000000 121 112 108
109.000000 483.000000 169.000000 108 99 94
109.000000 490.000000 164.000000 123 118 118
109.000000 504.000000 164.000000 131 124 122
125.000000 505.000000 199.000000 109 100 96
159.000000 277.000000 119.000000 71 66 63
155.000000 272.000000 123.000000 77 72 70
157.000000 285.000000 119.000000 113 110 111
189.000000 276.000000 87.000000 119 115 116
163.000000 268.000000 97.000000 106 101 101
166.000000 304.000000 105.000000 99 93 91
164.000000 308.000000 107.000000 106 102 103
155.000000 329.000000 119.000000 72 64 61
159.000000 335.000000 119.000000 88 85 84
172.000000 347.000000 107.000000 79 75 73
178.000000 364.000000 99.000000 125 122 124
191.000000 365.000000 96.000000 88 84 83
221.000000 279.000000 106.000000 103 93 87
218.000000 280.000000 99.000000 123 116 114
223.000000 290.000000 115.000000 95 89 86
224.000000 266.000000 118.000000 93 91 93
196.000000 322.000000 100.000000 111 108 109
221.000000 363.000000 111.000000 112 108 108
141.000000 266.000000 174.000000 106 100 97
139.000000 301.000000 166.000000 126 120 121
186.000000 307.000000 191.000000 92 87 86
179.000000 266.000000 198.000000 95 88 86
177.000000 273.000000 199.000000 102 96 93
138.000000 348.000000 136.000000 103 99 99
138.000000 352.000000 128.000000 91 89 91
132.000000 375.000000 137.000000 89 86 85
187.000000 372.000000 195.000000 90 83 80
220.000000 271.000000 142.000000 68 61 56
218.000000 267.000000 149.000000 84 78 76
196.000000 312.000000 186.000000 98 94 94
213.000000 305.000000 172.000000 63 57 52
227.000000 309.000000 141.000000 97 93 92
242.000000 313.000000 248.000000 93 89 89
195.000000 325.000000 191.000000 56 50 45
208.000000 344.000000 183.000000 83 81 82
210.000000 379.000000 189.000000 76 75 76
228.000000 334.000000 149.000000 95 88 84
230.000000 336.000000 134.000000 92 83 78
229.000000 363.000000 130.000000 107 99 96
234.000000 375.000000 136.000000 94 86 82
233.000000 368.000000 149.000000 99 94 91
194.000000 348.000000 193.000000 57 53 50
204.000000 383.000000 194.000000 76 73 72
223.000000 380.000000 236.000000 76 71 67
254.000000 349.000000 213.000000 78 77 78
238.000000 339.000000 241.000000 82 80 81
191.000000 406.000000 77.000000 118 114 116
178.000000 446.000000 82.000000 109 106 109
144.000000 456.000000 94.000000 97 91 89
140.000000 479.000000 99.000000 92 89 90
161.000000 471.000000 89.000000 102 97 95
172.000000 469.000000 87.000000 110 108 110
205.000000 407.000000 84.000000 83 77 76
207.000000 403.000000 97.000000 97 92 90
214.000000 396.000000 103.000000 114 106 104
203.000000 421.000000 79.000000 113 109 111
199.000000 435.000000 81.000000 80 72 65
225.000000 416.000000 111.000000 107 101 101
220.000000 487.000000 85.000000 105 98 96
208.000000 509.000000 69.000000 54 52 53
228.000000 465.000000 103.000000 119 114 115
249.000000 487.000000 105.000000 114 108 107
249.000000 491.000000 102.000000 131 126 126
148.000000 421.000000 212.000000 117 109 107
154.000000 429.000000 210.000000 113 102 97
180.000000 416.000000 208.000000 87 83 83
130.000000 501.000000 202.000000 132 126 125
174.000000 459.000000 218.000000 96 91 90
169.000000 465.000000 220.000000 86 81 80
161.000000 475.000000 225.000000 115 109 109
171.000000 498.000000 233.000000 138 133 135
235.000000 406.000000 159.000000 60 57 57
236.000000 418.000000 133.000000 99 92 88
243.000000 428.000000 154.000000 80 75 75
253.000000 443.000000 144.000000 79 74 73
243.000000 427.000000 165.000000 85 81 80
205.000000 414.000000 198.000000 83 79 79
216.000000 410.000000 197.000000 103 101 101
222.000000 412.000000 193.000000 105 104 105
222.000000 391.000000 228.000000 88 84 83
214.000000 387.000000 244.000000 103 98 98
201.000000 447.000000 219.000000 66 64 65
214.000000 417.000000 197.000000 80 77 78
197.000000 437.000000 233.000000 77 75 75
232.000000 389.000000 206.000000 65 63 63
246.000000 301.000000 258.000000 109 105 105
246.000000 303.000000 281.000000 92 80 70
223.000000 355.000000 266.000000 111 106 106
237.000000 327.000000 276.000000 93 80 69
230.000000 342.000000 258.000000 82 78 77
227.000000 353.000000 274.000000 120 115 115
235.000000 356.000000 289.000000 133 125 123
211.000000 409.000000 260.000000 92 83 76
238.000000 415.000000 290.000000 103 96 93
255.000000 424.000000 297.000000 147 143 145
242.000000 458.000000 275.000000 147 141 142
253.000000 510.000000 265.000000 151 145 146
247.000000 490.000000 423.000000 142 141 148
351.000000 10.000000 223.000000 52 50 50
339.000000 10.000000 236.000000 92 84 81
329.000000 47.000000 219.000000 76 73 73
355.000000 9.000000 248.000000 73 69 67
374.000000 41.000000 243.000000 123 114 108
376.000000 55.000000 225.000000 82 79 79
379.000000 61.000000 253.000000 103 97 96
350.000000 93.000000 209.000000 63 60 59
350.000000 101.000000 205.000000 87 83 83
370.000000 75.000000 219.000000 101 94 92
383.000000 87.000000 236.000000 109 103 101
382.000000 80.000000 251.000000 105 99 98
383.000000 90.000000 240.000000 87 80 75
364.000000 121.000000 219.000000 112 108 107
372.000000 110.000000 246.000000 113 107 107
369.000000 125.000000 227.000000 117 110 108
275.000000 161.000000 240.000000 107 103 104
273.000000 161.000000 247.000000 95 91 90
280.000000 175.000000 240.000000 96 92 91
300.000000 136.000000 236.000000 79 75 73
306.000000 149.000000 229.000000 66 64 64
319.000000 165.000000 211.000000 94 90 90
318.000000 174.000000 211.000000 70 65 62
310.000000 179.000000 212.000000 77 71 68
318.000000 190.000000 210.000000 94 89 89
311.000000 218.000000 213.000000 68 62 59
340.000000 179.000000 215.000000 106 101 100
355.000000 129.000000 205.000000 115 110 109
366.000000 139.000000 244.000000 106 98 95
372.000000 152.000000 242.000000 108 102 100
372.000000 158.000000 248.000000 104 99 97
354.000000 183.000000 225.000000 109 104 103
366.000000 187.000000 237.000000 103 98 96
374.000000 177.000000 245.000000 127 122 122
330.000000 211.000000 212.000000 110 106 107
370.000000 199.000000 247.000000 128 121 120
354.000000 230.000000 245.000000 109 100 97
353.000000 238.000000 248.000000 127 119 116
319.000000 59.000000 262.000000 96 90 89
316.000000 67.000000 258.000000 93 88 87
298.000000 120.000000 256.000000 82 80 81
317.000000 121.000000 275.000000 63 59 58
340.000000 11.000000 282.000000 82 76 73
348.000000 9.000000 278.000000 65 62 60
337.000000 17.000000 276.000000 89 83 80
325.000000 25.000000 303.000000 94 87 84
332.000000 17.000000 289.000000 94 87 84
323.000000 26.000000 318.000000 115 106 100
325.000000 33.000000 299.000000 110 102 97
332.000000 45.000000 319.000000 141 129 123
356.000000 9.000000 265.000000 70 67 66
373.000000 11.000000 268.000000 124 116 112
376.000000 12.000000 256.000000 125 117 113
377.000000 30.000000 257.000000 112 102 96
354.000000 11.000000 299.000000 94 88 85
359.000000 11.000000 319.000000 107 98 93
365.000000 11.000000 313.000000 109 100 96
371.000000 12.000000 312.000000 113 104 100
377.000000 36.000000 268.000000 116 105 98
381.000000 33.000000 279.000000 125 113 105
360.000000 55.000000 300.000000 159 142 131
353.000000 51.000000 311.000000 172 154 143
383.000000 34.000000 295.000000 140 127 121
330.000000 9.000000 325.000000 80 71 65
329.000000 9.000000 333.000000 77 68 63
323.000000 14.000000 342.000000 90 79 72
322.000000 20.000000 324.000000 87 80 75
322.000000 21.000000 339.000000 113 102 96
336.000000 9.000000 347.000000 84 76 72
330.000000 10.000000 353.000000 82 74 70
346.000000 16.000000 376.000000 81 74 70
341.000000 46.000000 320.000000 141 127 119
348.000000 37.000000 350.000000 183 170 166
347.000000 36.000000 358.000000 182 169 165
341.000000 35.000000 368.000000 175 162 156
359.000000 11.000000 351.000000 89 80 74
373.000000 12.000000 350.000000 112 102 96
367.000000 29.000000 362.000000 161 148 141
370.000000 37.000000 331.000000 169 154 146
378.000000 34.000000 329.000000 158 143 135
325.000000 77.000000 276.000000 90 78 70
331.000000 80.000000 279.000000 113 105 102
349.000000 85.000000 285.000000 97 86 79
368.000000 93.000000 277.000000 133 126 124
354.000000 115.000000 281.000000 111 101 96
369.000000 119.000000 266.000000 141 134 134
263.000000 182.000000 256.000000 104 99 99
262.000000 188.000000 260.000000 104 98 97
273.000000 169.000000 261.000000 132 128 130
293.000000 152.000000 266.000000 113 108 108
307.000000 133.000000 272.000000 73 68 67
302.000000 177.000000 271.000000 111 105 104
318.000000 190.000000 279.000000 94 89 88
258.000000 212.000000 265.000000 82 75 70
266.000000 210.000000 268.000000 86 79 75
258.000000 229.000000 273.000000 101 96 96
271.000000 231.000000 292.000000 96 92 92
287.000000 228.000000 302.000000 108 106 108
275.000000 255.000000 313.000000 97 91 88
313.000000 204.000000 287.000000 114 112 115
292.000000 221.000000 298.000000 107 104 105
336.000000 143.000000 294.000000 119 114 115
340.000000 147.000000 294.000000 116 112 112
355.000000 178.000000 279.000000 145 137 135
354.000000 207.000000 270.000000 103 99 100
387.000000 20.000000 322.000000 115 106 102
387.000000 23.000000 326.000000 110 103 100
283.000000 258.000000 230.000000 102 98 99
271.000000 294.000000 229.000000 86 83 83
268.000000 298.000000 231.000000 80 77 76
262.000000 314.000000 233.000000 75 72 72
278.000000 305.000000 230.000000 70 67 67
293.000000 285.000000 222.000000 88 84 84
300.000000 279.000000 221.000000 103 99 100
308.000000 277.000000 220.000000 101 96 96
315.000000 277.000000 223.000000 94 89 87
294.000000 263.000000 224.000000 80 77 76
308.000000 316.000000 222.000000 97 93 93
291.000000 298.000000 226.000000 59 57 56
312.000000 312.000000 226.000000 82 79 78
294.000000 374.000000 183.000000 116 112 113
262.000000 343.000000 204.000000 80 79 81
277.000000 347.000000 194.000000 108 105 106
322.000000 276.000000 227.000000 101 96 95
347.000000 272.000000 254.000000 117 107 101
330.000000 318.000000 234.000000 137 129 127
325.000000 321.000000 229.000000 135 126 124
331.000000 353.000000 251.000000 134 127 127
332.000000 369.000000 235.000000 142 136 135
281.000000 485.000000 126.000000 137 134 137
258.000000 428.000000 152.000000 101 99 99
269.000000 421.000000 156.000000 105 100 100
268.000000 436.000000 149.000000 96 90 88
290.000000 392.000000 176.000000 128 123 124
297.000000 387.000000 181.000000 112 108 108
300.000000 396.000000 182.000000 111 106 107
302.000000 429.000000 173.000000 116 113 114
307.000000 416.000000 182.000000 92 88 87
315.000000 418.000000 179.000000 85 81 80
267.000000 455.000000 134.000000 113 109 110
286.000000 481.000000 132.000000 137 134 136
301.000000 454.000000 160.000000 89 84 83
307.000000 458.000000 168.000000 122 118 118
318.000000 454.000000 170.000000 114 110 110
293.000000 481.000000 138.000000 139 135 137
318.000000 482.000000 177.000000 132 125 123
315.000000 501.000000 174.000000 129 121 118
314.000000 507.000000 171.000000 102 95 92
318.000000 495.000000 252.000000 144 136 135
325.000000 441.000000 191.000000 129 123 122
325.000000 446.000000 191.000000 133 125 123
327.000000 395.000000 208.000000 134 128 128
331.000000 390.000000 219.000000 125 119 118
336.000000 400.000000 234.000000 127 120 118
334.000000 420.000000 223.000000 126 119 118
338.000000 416.000000 242.000000 116 110 108
336.000000 428.000000 240.000000 150 143 142
323.000000 458.000000 179.000000 115 105 100
332.000000 466.000000 208.000000 143 136 136
324.000000 489.000000 208.000000 147 140 139
323.000000 496.000000 221.000000 142 136 138
321.000000 504.000000 220.000000 139 133 133
324.000000 491.000000 229.000000 113 104 100
262.000000 262.000000 258.000000 80 78 78
257.000000 266.000000 298.000000 121 116 116
266.000000 261.000000 310.000000 95 88 85
256.000000 276.000000 293.000000 124 118 118
257.000000 283.000000 298.000000 134 128 129
265.000000 304.000000 306.000000 99 89 83
297.000000 286.000000 325.000000 125 116 111
265.000000 330.000000 300.000000 91 78 67
308.000000 350.000000 309.000000 93 80 69
305.000000 363.000000 310.000000 138 128 125
314.000000 360.000000 309.000000 141 132 129
313.000000 373.000000 304.000000 178 173 175
333.000000 286.000000 276.000000 114 107 106
339.000000 271.000000 283.000000 144 137 138
336.000000 282.000000 275.000000 134 127 125
334.000000 290.000000 274.000000 135 129 129
323.000000 332.000000 304.000000 100 85 70
323.000000 366.000000 294.000000 111 100 94
271.000000 442.000000 292.000000 160 152 152
287.000000 442.000000 295.000000 163 156 156
292.000000 415.000000 299.000000 159 153 154
294.000000 426.000000 303.000000 104 98 96
306.000000 434.000000 289.000000 141 135 135
261.000000 454.000000 284.000000 165 160 163
260.000000 476.000000 279.000000 163 158 160
284.000000 463.000000 286.000000 154 144 141
286.000000 490.000000 275.000000 144 133 129
313.000000 467.000000 275.000000 121 112 108
315.000000 476.000000 272.000000 94 91 92
318.000000 491.000000 257.000000 123 109 102
324.000000 397.000000 287.000000 134 125 123
329.000000 393.000000 277.000000 131 128 130
328.000000 405.000000 277.000000 149 141 141
336.000000 388.000000 269.000000 152 144 144
337.000000 401.000000 265.000000 136 129 129
326.000000 422.000000 275.000000 154 146 145
336.000000 419.000000 258.000000 84 79 76
121.000000 625.000000 92.000000 40 45 50
97.000000 614.000000 119.000000 51 54 58
103.000000 610.000000 127.000000 51 53 58
109.000000 608.000000 123.000000 46 48 52
117.000000 619.000000 107.000000 49 50 53
57.000000 637.000000 160.000000 87 85 87
60.000000 631.000000 186.000000 116 113 115
110.000000 523.000000 152.000000 134 130 132
111.000000 531.000000 147.000000 128 122 122
112.000000 538.000000 149.000000 126 121 122
83.000000 594.000000 134.000000 65 67 71
110.000000 586.000000 146.000000 80 79 81
97.000000 593.000000 139.000000 34 35 38
115.000000 592.000000 141.000000 47 45 46
112.000000 603.000000 129.000000 39 39 40
120.000000 588.000000 176.000000 57 57 59
120.000000 594.000000 168.000000 62 60 61
125.000000 576.000000 192.000000 53 53 56
127.000000 624.000000 228.000000 77 72 70
122.000000 639.000000 229.000000 88 81 77
116.000000 633.000000 243.000000 78 74 73
36.000000 709.000000 127.000000 130 125 126
80.000000 699.000000 114.000000 102 96 95
91.000000 712.000000 111.000000 109 104 103
93.000000 721.000000 108.000000 91 85 81
64.000000 751.000000 119.000000 116 111 110
84.000000 756.000000 106.000000 117 111 111
119.000000 715.000000 111.000000 90 87 87
113.000000 729.000000 126.000000 64 63 64
115.000000 759.000000 106.000000 91 86 85
27.000000 674.000000 146.000000 119 115 116
26.000000 674.000000 151.000000 141 133 133
39.000000 640.000000 152.000000 90 88 90
44.000000 657.000000 135.000000 114 110 110
53.000000 649.000000 139.000000 96 93 93
38.000000 692.000000 182.000000 116 104 100
58.000000 678.000000 220.000000 135 113 97
49.000000 698.000000 199.000000 175 168 170
55.000000 718.000000 186.000000 134 117 112
62.000000 717.000000 189.000000 151 142 140
51.000000 751.000000 144.000000 129 121 119
64.000000 651.000000 140.000000 74 72 73
88.000000 667.000000 152.000000 64 64 67
76.000000 642.000000 164.000000 78 77 79
79.000000 640.000000 183.000000 88 83 82
118.000000 650.000000 143.000000 68 66 67
97.000000 661.000000 175.000000 68 66 66
101.000000 672.000000 171.000000 62 60 61
70.000000 652.000000 215.000000 119 108 101
83.000000 648.000000 202.000000 87 81 79
71.000000 667.000000 231.000000 116 104 95
68.000000 697.000000 217.000000 145 111 100
104.000000 662.000000 206.000000 62 60 60
100.000000 660.000000 219.000000 68 63 60
108.000000 663.000000 223.000000 67 64 63
114.000000 643.000000 197.000000 77 70 64
68.000000 736.000000 186.000000 120 112 109
111.000000 740.000000 184.000000 87 79 76
68.000000 708.000000 203.000000 194 186 189
71.000000 712.000000 194.000000 133 116 111
75.000000 709.000000 202.000000 189 181 183
117.000000 724.000000 224.000000 151 142 139
121.000000 744.000000 205.000000 71 66 65
121.000000 755.000000 204.000000 95 90 91
151.000000 561.000000 63.000000 100 93 89
180.000000 522.000000 41.000000 73 72 73
178.000000 538.000000 41.000000 112 104 99
163.000000 555.000000 56.000000 110 102 97
170.000000 567.000000 57.000000 102 95 91
182.000000 545.000000 40.000000 112 104 100
136.000000 536.000000 87.000000 100 92 87
133.000000 534.000000 98.000000 61 59 59
155.000000 592.000000 55.000000 121 111 105
174.000000 603.000000 48.000000 130 117 108
187.000000 609.000000 45.000000 115 106 100
147.000000 602.000000 69.000000 124 112 105
134.000000 599.000000 123.000000 100 93 91
143.000000 611.000000 93.000000 101 95 94
150.000000 612.000000 91.000000 116 105 99
152.000000 616.000000 110.000000 82 77 76
163.000000 612.000000 93.000000 94 85 80
161.000000 611.000000 100.000000 65 60 57
175.000000 616.000000 97.000000 50 49 50
192.000000 531.000000 45.000000 71 69 70
212.000000 553.000000 42.000000 55 51 48
218.000000 528.000000 66.000000 97 86 77
221.000000 536.000000 70.000000 111 100 92
245.000000 538.000000 96.000000 93 81 72
252.000000 534.000000 97.000000 86 75 66
230.000000 560.000000 85.000000 103 99 99
246.000000 545.000000 96.000000 90 78 68
203.000000 576.000000 42.000000 116 107 103
212.000000 585.000000 49.000000 106 96 88
209.000000 615.000000 59.000000 58 52 47
234.000000 580.000000 93.000000 123 119 119
240.000000 600.000000 95.000000 77 71 67
141.000000 542.000000 211.000000 146 140 141
129.000000 550.000000 197.000000 110 100 95
129.000000 572.000000 200.000000 51 53 56
160.000000 513.000000 228.000000 125 119 119
181.000000 563.000000 240.000000 51 51 54
135.000000 611.000000 128.000000 83 78 77
131.000000 625.000000 146.000000 89 86 88
135.000000 613.000000 177.000000 112 106 105
128.000000 628.000000 175.000000 72 71 72
150.000000 599.000000 219.000000 98 90 86
154.000000 594.000000 224.000000 106 101 100
143.000000 620.000000 216.000000 64 62 62
145.000000 618.000000 221.000000 68 66 66
150.000000 616.000000 235.000000 59 59 60
166.000000 594.000000 233.000000 117 110 108
168.000000 617.000000 244.000000 63 60 61
185.000000 608.000000 248.000000 116 111 112
222.000000 529.000000 252.000000 135 131 132
200.000000 553.000000 239.000000 113 109 109
206.000000 557.000000 241.000000 98 95 97
220.000000 564.000000 254.000000 61 60 63
235.000000 553.000000 249.000000 101 97 99
200.000000 597.000000 249.000000 90 85 85
218.000000 605.000000 249.000000 119 114 114
224.000000 602.000000 249.000000 117 111 110
246.000000 579.000000 251.000000 50 52 56
147.000000 654.000000 93.000000 93 89 88
157.000000 651.000000 87.000000 95 89 87
159.000000 663.000000 84.000000 92 86 82
131.000000 640.000000 118.000000 61 61 65
176.000000 689.000000 74.000000 98 92 89
150.000000 709.000000 84.000000 97 91 88
150.000000 718.000000 82.000000 93 88 86
202.000000 656.000000 43.000000 114 108 106
212.000000 664.000000 47.000000 89 81 76
217.000000 654.000000 65.000000 108 102 100
219.000000 654.000000 69.000000 73 68 65
222.000000 646.000000 107.000000 84 81 80
241.000000 651.000000 81.000000 99 96 96
247.000000 681.000000 74.000000 93 87 84
249.000000 677.000000 76.000000 106 99 97
211.000000 718.000000 51.000000 114 107 104
215.000000 762.000000 63.000000 89 79 70
222.000000 727.000000 64.000000 49 46 45
253.000000 706.000000 76.000000 116 111 111
227.000000 755.000000 73.000000 90 86 86
238.000000 764.000000 79.000000 85 80 79
130.000000 728.000000 232.000000 114 104 98
148.000000 731.000000 249.000000 112 104 100
154.000000 733.000000 241.000000 111 102 98
137.000000 750.000000 228.000000 116 108 106
133.000000 766.000000 229.000000 73 69 68
150.000000 737.000000 237.000000 120 109 102
190.000000 753.000000 254.000000 93 87 85
114.000000 668.000000 287.000000 69 65 64
115.000000 673.000000 291.000000 105 101 102
121.000000 711.000000 267.000000 171 131 124
129.000000 586.000000 302.000000 104 104 110
139.000000 589.000000 300.000000 54 57 61
156.000000 577.000000 311.000000 113 112 115
147.000000 598.000000 313.000000 98 100 105
146.000000 602.000000 309.000000 97 99 105
160.000000 583.000000 309.000000 126 124 128
162.000000 578.000000 317.000000 88 88 91
164.000000 591.000000 309.000000 111 109 113
161.000000 619.000000 266.000000 101 96 95
185.000000 610.000000 262.000000 71 68 67
190.000000 610.000000 265.000000 72 69 69
182.000000 627.000000 284.000000 80 74 70
191.000000 627.000000 286.000000 105 99 97
162.000000 616.000000 319.000000 91 93 98
163.000000 639.000000 293.000000 56 56 58
178.000000 627.000000 310.000000 55 56 59
182.000000 633.000000 308.000000 48 49 53
178.000000 590.000000 324.000000 72 72 75
177.000000 597.000000 337.000000 66 69 75
178.000000 615.000000 333.000000 113 113 118
191.000000 611.000000 348.000000 99 99 104
191.000000 633.000000 342.000000 124 122 127
216.000000 545.000000 379.000000 53 54 57
212.000000 568.000000 379.000000 72 74 79
234.000000 570.000000 364.000000 54 56 60
239.000000 574.000000 381.000000 149 144 145
211.000000 581.000000 259.000000 58 60 64
213.000000 587.000000 259.000000 51 54 58
199.000000 622.000000 286.000000 98 94 94
206.000000 613.000000 279.000000 74 72 72
215.000000 614.000000 279.000000 89 87 87
212.000000 616.000000 285.000000 82 79 78
195.000000 629.000000 288.000000 101 96 96
245.000000 631.000000 271.000000 101 96 96
211.000000 601.000000 343.000000 46 47 49
204.000000 607.000000 359.000000 81 80 84
202.000000 602.000000 360.000000 73 75 80
213.000000 587.000000 381.000000 91 92 99
221.000000 598.000000 372.000000 97 99 106
237.000000 639.000000 351.000000 65 69 76
224.000000 519.000000 398.000000 84 86 91
244.000000 543.000000 391.000000 52 55 60
242.000000 534.000000 407.000000 118 118 123
247.000000 540.000000 403.000000 109 109 114
244.000000 548.000000 400.000000 125 126 133
143.000000 641.000000 286.000000 99 97 99
131.000000 662.000000 262.000000 64 61 60
153.000000 650.000000 310.000000 64 65 68
132.000000 681.000000 308.000000 134 119 113
173.000000 657.000000 319.000000 65 66 70
183.000000 640.000000 289.000000 59 58 59
173.000000 689.000000 278.000000 74 69 68
174.000000 696.000000 288.000000 90 84 82
181.000000 698.000000 313.000000 88 90 96
170.000000 656.000000 323.000000 80 76 79
137.000000 716.000000 268.000000 135 129 131
145.000000 722.000000 265.000000 113 109 111
148.000000 705.000000 289.000000 164 154 151
157.000000 764.000000 262.000000 73 74 79
165.000000 729.000000 256.000000 69 64 60
190.000000 735.000000 270.000000 104 93 86
172.000000 723.000000 288.000000 88 86 88
190.000000 728.000000 289.000000 96 91 90
163.000000 747.000000 276.000000 82 83 87
186.000000 741.000000 267.000000 100 92 89
182.000000 758.000000 269.000000 57 59 65
193.000000 646.000000 287.000000 88 84 83
206.000000 670.000000 311.000000 63 59 59
222.000000 661.000000 298.000000 110 103 101
217.000000 664.000000 298.000000 106 100 98
200.000000 703.000000 297.000000 92 87 87
210.000000 688.000000 306.000000 38 41 46
208.000000 692.000000 312.000000 68 70 75
223.000000 700.000000 304.000000 121 108 100
238.000000 664.000000 287.000000 89 85 85
253.000000 678.000000 279.000000 111 107 107
244.000000 692.000000 286.000000 71 65 62
239.000000 699.000000 304.000000 90 82 76
193.000000 653.000000 333.000000 81 82 87
207.000000 642.000000 344.000000 66 66 70
204.000000 649.000000 339.000000 74 73 76
201.000000 667.000000 336.000000 83 83 88
209.000000 646.000000 350.000000 65 66 69
206.000000 691.000000 321.000000 59 64 72
223.000000 676.000000 348.000000 39 41 44
237.000000 641.000000 345.000000 66 64 65
246.000000 659.000000 349.000000 46 51 57
192.000000 720.000000 265.000000 63 59 58
215.000000 728.000000 275.000000 81 79 81
197.000000 722.000000 290.000000 101 98 100
214.000000 714.000000 292.000000 145 135 132
230.000000 722.000000 277.000000 81 76 75
255.000000 710.000000 283.000000 91 83 78
227.000000 715.000000 291.000000 121 114 112
71.000000 778.000000 124.000000 122 116 117
79.000000 771.000000 116.000000 118 111 109
123.000000 770.000000 95.000000 103 99 98
115.000000 798.000000 93.000000 105 100 99
122.000000 788.000000 91.000000 92 86 82
101.000000 806.000000 106.000000 114 108 107
70.000000 782.000000 130.000000 94 90 90
75.000000 787.000000 158.000000 148 137 134
75.000000 794.000000 152.000000 136 125 121
95.000000 775.000000 180.000000 121 112 108
80.000000 804.000000 129.000000 121 115 115
86.000000 810.000000 128.000000 112 105 103
108.000000 792.000000 186.000000 129 120 117
98.000000 830.000000 131.000000 109 100 97
124.000000 782.000000 210.000000 70 68 70
131.000000 810.000000 90.000000 123 116 115
131.000000 825.000000 97.000000 146 139 138
163.000000 789.000000 79.000000 75 73 73
180.000000 792.000000 76.000000 105 99 98
182.000000 798.000000 78.000000 91 88 88
161.000000 828.000000 88.000000 42 44 48
176.000000 800.000000 79.000000 99 95 96
185.000000 829.000000 89.000000 67 65 66
157.000000 858.000000 92.000000 67 68 77
170.000000 844.000000 81.000000 71 71 75
182.000000 836.000000 71.000000 48 50 56
200.000000 817.000000 79.000000 70 66 65
222.000000 828.000000 106.000000 110 100 97
232.000000 794.000000 83.000000 107 101 98
240.000000 791.000000 85.000000 121 114 114
248.000000 789.000000 87.000000 84 79 78
240.000000 801.000000 87.000000 110 103 101
245.000000 814.000000 92.000000 95 91 91
194.000000 845.000000 103.000000 175 167 167
208.000000 838.000000 111.000000 133 121 117
223.000000 847.000000 125.000000 160 151 149
248.000000 834.000000 125.000000 131 124 123
135.000000 784.000000 222.000000 69 65 64
140.000000 787.000000 216.000000 119 114 114
136.000000 795.000000 216.000000 88 86 87
128.000000 774.000000 239.000000 97 98 103
133.000000 784.000000 236.000000 69 72 78
138.000000 788.000000 236.000000 74 76 83
139.000000 808.000000 197.000000 85 78 75
139.000000 811.000000 201.000000 102 95 92
169.000000 818.000000 217.000000 124 114 109
169.000000 806.000000 250.000000 72 76 83
139.000000 868.000000 146.000000 136 123 116
189.000000 861.000000 130.000000 174 162 158
170.000000 874.000000 146.000000 164 153 149
180.000000 880.000000 155.000000 130 118 113
178.000000 884.000000 197.000000 137 106 100
205.000000 809.000000 247.000000 49 46 46
252.000000 818.000000 246.000000 81 74 71
206.000000 863.000000 139.000000 166 155 151
209.000000 858.000000 131.000000 168 158 156
192.000000 870.000000 140.000000 94 87 85
209.000000 884.000000 155.000000 115 101 97
239.000000 843.000000 129.000000 152 144 144
231.000000 860.000000 140.000000 60 58 61
235.000000 866.000000 142.000000 136 124 121
247.000000 871.000000 159.000000 125 117 114
252.000000 881.000000 173.000000 118 93 93
215.000000 850.000000 244.000000 75 64 60
215.000000 875.000000 248.000000 118 107 100
220.000000 891.000000 253.000000 129 115 107
255.000000 862.000000 232.000000 76 69 66
254.000000 873.000000 202.000000 107 81 72
247.000000 879.000000 210.000000 94 78 70
250.000000 891.000000 206.000000 78 71 67
255.000000 889.000000 218.000000 103 91 83
234.000000 879.000000 246.000000 131 94 99
244.000000 874.000000 231.000000 95 88 83
246.000000 871.000000 251.000000 98 89 87
244.000000 887.000000 237.000000 109 85 81
174.000000 925.000000 191.000000 89 85 86
179.000000 899.000000 191.000000 125 100 94
180.000000 921.000000 188.000000 89 88 91
187.000000 927.000000 178.000000 56 56 58
190.000000 921.000000 177.000000 68 64 62
181.000000 933.000000 180.000000 52 52 56
182.000000 944.000000 166.000000 51 52 54
169.000000 952.000000 242.000000 49 50 52
186.000000 933.000000 248.000000 103 85 78
163.000000 961.000000 181.000000 137 127 123
165.000000 977.000000 189.000000 156 145 141
190.000000 994.000000 175.000000 155 143 138
168.000000 991.000000 200.000000 167 155 151
161.000000 976.000000 238.000000 131 123 121
165.000000 979.000000 242.000000 159 142 140
191.000000 1010.000000 198.000000 180 166 160
207.000000 910.000000 169.000000 98 81 75
210.000000 952.000000 148.000000 96 90 89
223.000000 934.000000 162.000000 59 57 58
248.000000 903.000000 189.000000 103 93 87
249.000000 910.000000 190.000000 103 94 88
247.000000 926.000000 184.000000 66 58 54
251.000000 926.000000 186.000000 71 58 52
192.000000 900.000000 246.000000 102 92 86
255.000000 925.000000 192.000000 114 92 75
251.000000 899.000000 238.000000 125 104 91
204.000000 982.000000 160.000000 147 136 132
197.000000 1013.000000 182.000000 112 111 117
230.000000 971.000000 155.000000 135 126 122
234.000000 966.000000 154.000000 124 116 112
236.000000 987.000000 164.000000 148 138 134
243.000000 989.000000 169.000000 148 137 133
249.000000 990.000000 173.000000 144 131 124
229.000000 993.000000 165.000000 162 152 149
241.000000 993.000000 170.000000 162 150 144
204.000000 1019.000000 194.000000 188 182 184
215.000000 1020.000000 193.000000 202 188 182
193.000000 1006.000000 246.000000 184 168 159
234.000000 1006.000000 253.000000 203 186 176
229.000000 1015.000000 234.000000 211 199 197
237.000000 1014.000000 229.000000 217 200 191
171.000000 779.000000 269.000000 108 111 120
161.000000 793.000000 261.000000 126 128 137
177.000000 773.000000 269.000000 118 117 121
177.000000 778.000000 265.000000 123 119 122
205.000000 770.000000 257.000000 115 105 99
218.000000 772.000000 272.000000 108 94 86
218.000000 792.000000 257.000000 105 97 94
251.000000 777.000000 265.000000 71 62 55
252.000000 811.000000 300.000000 51 49 50
228.000000 850.000000 282.000000 109 97 97
246.000000 857.000000 279.000000 114 103 97
230.000000 866.000000 265.000000 70 72 78
238.000000 868.000000 265.000000 63 65 70
240.000000 895.000000 256.000000 88 78 74
181.000000 967.000000 271.000000 97 82 83
204.000000 924.000000 263.000000 134 110 101
209.000000 923.000000 265.000000 133 115 107
206.000000 939.000000 276.000000 42 42 44
214.000000 936.000000 277.000000 51 46 45
222.000000 935.000000 277.000000 57 51 50
214.000000 940.000000 292.000000 89 85 85
233.000000 900.000000 263.000000 138 118 107
234.000000 913.000000 264.000000 153 131 119
244.000000 905.000000 261.000000 131 107 97
246.000000 915.000000 257.000000 139 124 114
242.000000 932.000000 286.000000 96 91 89
232.000000 946.000000 295.000000 100 92 88
238.000000 950.000000 303.000000 114 108 108
254.000000 943.000000 298.000000 89 86 86
195.000000 980.000000 276.000000 170 156 148
213.000000 998.000000 268.000000 194 178 170
232.000000 960.000000 294.000000 98 91 87
245.000000 963.000000 305.000000 118 115 117
253.000000 992.000000 276.000000 122 110 101
280.000000 513.000000 114.000000 124 119 119
273.000000 552.000000 108.000000 85 74 63
271.000000 589.000000 107.000000 46 50 55
282.000000 590.000000 122.000000 51 55 60
277.000000 592.000000 97.000000 87 82 81
278.000000 602.000000 98.000000 89 84 83
282.000000 599.000000 98.000000 95 89 87
262.000000 616.000000 111.000000 58 55 54
270.000000 634.000000 124.000000 58 58 60
